-18.494111   10.918778   24.911333
-19.993444   10.234000   21.357667
-14.930667   9.370000   24.920333
-14.403222   13.276889   22.608222
-9.783000   12.851909   22.722182
-15.278667   12.148667   19.129333
-12.339667   15.193333   17.275444
-9.175000   12.886125   18.702375
-13.844000   13.736000   14.180000
-9.360000   13.299889   12.728444
-7.290000   9.606455   15.234818
-10.121667   11.510000   9.437000
-5.721556   10.403333   8.764556
-5.701364   6.940364   12.048545
-6.713000   8.681333   5.503667
-3.911444   5.221556   6.811000
-6.075273   2.743455   10.478273
-4.483667   3.009333   3.735333
-3.103111 -0.821556   5.726556
-6.816273 -1.207273   8.983273
-0.777000 -2.207333   4.115333
-1.589000 -3.426111 -0.253111
-1.680375   0.702875 -1.049500
0.778000 -5.590667   0.820667
3.842333 -7.072333 -2.354667
3.692364 -6.868545 -7.533364
4.323000 -9.655667   0.223333
8.059889 -7.882333   1.967889
9.842545 -5.206818 -1.567727
5.775000 -5.477667   3.961667
8.756667 -2.166222   4.013111
8.858200 -0.853800 -0.642400
5.791333 -0.410000   5.599000
7.040111   3.566333   3.968444
6.420909   2.650636 -0.842000
3.724333   4.990333   5.305000
2.844889   6.538667   0.884444
2.624250   2.991875 -1.587875
-0.764333   8.117333   1.042000
-1.098444   8.152778 -3.632889
-1.230600   3.684500 -5.785000
-4.713333   9.491333 -3.286333
-5.606333   6.548444 -6.727667
-4.909636   2.106091 -4.469909
-8.722333   8.606333 -7.218333
-11.342667   6.114222 -4.986000
-8.704875   5.653000 -1.587500
-14.886000   6.244000 -6.513000
-15.982889   10.394111 -4.773556
-11.792375   11.301250 -4.071750
-19.298333   10.504000 -5.939333
-16.942333   9.075889 -9.275333
-14.378750   12.590125 -8.419375
-18.180000   6.164000 -9.989667
-16.013111   2.807000 -10.815444
-19.308455 -0.616182 -9.478364
-12.270667   2.416333 -11.551667
-12.052889 -1.349111 -14.253778
-16.691909 -1.479818 -16.158000
-10.095667 -4.120333 -13.029333
-7.073333 -1.364111 -15.346444
-7.876125   3.154250 -16.112625
-3.292667 -1.825000 -15.132333
-1.554667 -1.937111 -11.691111
-3.130000 -5.077100 -8.159800
2.046333 -1.896667 -12.390667
2.248444   2.592778 -11.920778
1.650636   2.646909 -7.019545
5.968000   2.656333 -12.484667
6.234333   5.975556 -9.390444
5.176250   3.228250 -6.270750
9.869667   5.897000 -10.511667
11.083667   6.355222 -6.213667
8.953125   2.796250 -5.096750
14.752667   5.723000 -7.192333
14.640778   2.341333 -3.752889
11.356500 -0.525750 -4.517500
18.040000   0.416667 -4.222667
16.393778 -3.044222 -1.679000
12.827636 -4.916818 -4.473000
19.819333 -4.582000 -2.421000
17.380556 -8.449000 -3.143667
15.149375 -6.739625 -6.394375
20.766667 -9.640333 -3.832667
19.078444 -12.252556 -7.238667
17.277125 -8.813125 -8.926000
22.603000 -12.409000 -8.409333
20.958444 -12.898889 -12.714111
19.331727 -8.377091 -13.370545
24.653333 -12.829667 -13.469000
23.170222 -10.519000 -17.271222
21.861545 -6.081545 -15.670182
26.771667 -9.902333 -18.558000
25.311222 -5.958889 -20.183667
24.569818 -2.729818 -16.437364
28.949667 -6.141667 -21.281333
28.899889 -1.728333 -20.089556
28.074667 -1.493000 -15.961556
32.281667 -0.521333 -21.598333
33.529889   1.284000 -17.523111
32.177250 -1.581625 -14.746500
37.151333   1.319333 -18.640000
38.352889 -0.224556 -14.529111
37.519125   3.554375 -12.909250
35.404333 -2.670333 -14.496667
34.967444 -0.910111 -10.164889
33.708900   3.749500 -10.932900
31.804000 -2.938333 -9.780333
30.528889   0.280111 -6.753889
30.226750   3.050250 -10.052375
27.459000 -1.734000 -6.149000
25.776000   1.770556 -3.660222
29.866200   3.693700 -1.256500
22.931000   3.247000 -5.642667
24.475444   5.624556 -8.303889
27.004200   2.396700 -10.744600
20.754667   5.220000 -9.378667
21.933556   5.319000 -13.667778
23.954875   1.533875 -13.367750
18.280000   5.242000 -14.153333
19.282333   2.477889 -17.744667
21.087000 -0.512125 -15.260625
15.579000   2.105667 -17.853667
16.251444 -2.104556 -19.685889
18.175750 -3.504375 -16.259125
12.558000 -2.490333 -19.182000
13.447222 -6.956889 -18.497111
15.729636 -7.119455 -14.094364
9.733000 -7.548000 -17.832333
11.077111 -10.967333 -14.972333
12.975700 -8.236600 -11.404800
7.436667 -11.603333 -14.379333
8.787556 -13.626556 -10.458778
10.312300 -9.345800 -8.577100
5.270667 -14.834333 -10.175000
5.550889 -12.491000 -6.216444
7.077909 -8.040727 -8.105727
1.901667 -13.247000 -5.729667
0.046444 -10.124111 -3.669000
0.221700 -6.275500 -6.761300
-2.431333 -11.838667 -1.642333
-6.410222 -11.703000 -3.435000
-7.196750 -15.174500 -0.786500
-7.322000 -8.111667 -3.579000
-6.554111 -5.653556 -0.723667
-5.822625 -3.731500 -4.638125
-7.159333 -3.951333   2.602333
-5.997000 -6.817667   5.325222
-9.345182 -4.596727   7.938727
-7.843333 -9.591000   3.299333
-10.272778 -10.778556   6.789556
-12.001000 -6.880750   6.532250
-11.677333 -13.459000   4.439333
-15.805111 -12.682333   6.305111
-15.950500 -8.451125   5.627500
-16.809667 -14.651000   3.252333
-20.706444 -12.096111   3.740667
-19.244182 -7.519909   2.977909
-22.472333 -12.873000   0.368000
-24.693444 -8.872333   0.348444
-21.290273 -5.322273 -0.491091
-26.057667 -9.852667 -3.141333
-26.432444 -5.529333 -4.303000
-22.156889 -5.256333 -4.292556
-27.925333 -7.309667 -7.333000
-24.478444 -5.536667 -9.528444
-21.229000 -7.653750 -7.103375
-26.292000 -7.239667 -12.387667
-22.535778 -9.120444 -14.034778
-21.677375 -5.284375 -15.663375
-21.692333 -9.991667 -10.512000
-17.656889 -7.901667 -11.539444
-19.212100 -3.297800 -12.642700
-16.530333 -8.582333 -7.983667
-14.458778 -5.037667 -7.230667
-17.989700 -1.808200 -6.103400
-10.906667 -5.847000 -6.352000
-9.966889 -2.470111 -3.362556
-8.550400   0.785800 -6.560000
-13.573000 -2.432667 -2.244333
-13.631222   1.826000 -3.508111
-12.169875   0.180750 -7.237875
-14.717667   4.744667 -1.301667
-19.064444   3.688556 -2.175000
-18.568875 -0.551750 -2.788000
-19.280000   4.639333   1.444333
-22.511000   1.703556   2.537333
-20.287125 -1.727500   1.393375
-21.442333   2.960667   5.915000
-22.728778 -1.044778   7.774889
-19.678000 -4.286273   5.674273
-21.113000 -0.085000   11.106000
-20.509444 -4.301667   12.248444
-17.143636 -5.872000   9.074636
-18.567667 -2.516667   14.993333
-15.941333 -6.342000   14.655778
-14.312000 -4.770500   11.115375
-13.976333 -5.082000   17.598000
-10.129444 -7.151222   16.096222
-10.294375 -4.601500   12.853000
-8.259333 -5.307333   18.872000
-4.842778 -4.728667   15.808889
-7.228375 -1.954875   13.679750
-2.792000 -3.034667   18.556000
-0.878222 -0.317111   15.511000
-4.476000   1.588750   14.376375
.331000   1.368000   18.644333
.637111   5.252667   16.173111
-3.547875   5.319875   15.751250
.531333   7.609000   19.041333
.486444   11.217667   16.637556
-4.191273   10.829727   17.205273
 1.651333   12.593000   19.943667
-1.676000   15.841667   19.404778
-4.614000   12.985750   20.542000
-0.186000   17.825667   22.337333
-4.417333   17.027778   24.023444
-4.022700   12.167200   24.283500
-3.734333   18.780333   27.392667
-5.384667   14.921222   29.099778
-2.059200   11.800400   27.502900
-4.435667   16.313333   32.577667
-3.091889   11.904667   33.130444
0.022000   12.844875   30.489750
-2.275667   12.421000   36.854000
1.579667   10.028111   36.476111
3.538375   12.056500   33.079500
2.180000   11.433667   39.943667
6.376556   12.133333   39.088889
6.900000   14.658200   34.828500
