-179.5	-18.43	86.3
11.56	137.4	144.9
57.46	-137.9	-132.9
-73.6	-174.9	63.1
-151.8	33.96	125.7
-129.6	109.4	106
-108.1	128.5	-108.6
165.2	-100.6	50.81
153.7	-78.9	-100.7
81.87	109.2	-146.2
-96.42	-174.8	12.18
193.1	49.6	-16.3
162.9	-110.7	34.58
181.3	39.81	74.41
64.16	134	-133.9
-31.59	126.3	-151.8
-81.4	-133	125.3
14.58	159.4	-119.9
-134.6	146.2	-22.44
-100.3	88.22	-148.9
-43.93	179.8	-75.82
128.6	83.61	128.3
-57.27	75.65	-176.1
166.6	34.85	105
98.86	-173.4	13.07
181.3	51.87	-66.58
-149	131.7	-21.88
189.4	-33.18	-54.96
-167.6	28.41	-105.4
20.18	143.3	138
138	-78.14	121.8
-158	-117.8	33.7
-154.5	56.99	-113.5
-107.5	64.33	155.9
-121.5	-61.77	-146.3
71.73	-166	85.44
183.3	-79.57	7.169
-43.76	-96.76	169.5
177.5	-92.16	3.205
-149	130.8	-26.18
154.1	94.43	85.68
60.87	125	143.8
-81.52	-176.8	45.67
-14.75	-124.3	-155.9
-177.4	-85.68	34.72
-70.5	-162.7	92.54
112.8	122.2	-111
-51.76	-133	-140.1
-52.39	-172.5	86.61
137.9	-137.7	44.88
-76.58	-178.8	-46.6
-167	81.77	-73.55
-136.1	-136	-54.49
156.2	-21.67	123
112.8	76.66	146.3
-21.86	-134	-146.8
-81.71	130.2	127.9
-137.5	-62.12	-131.3
77.59	174.3	-59.99
-142.8	139.1	15.87
138.8	143.2	14.87
-60.11	174.2	-77.68
43.67	179.2	-77.24
163.7	50.36	103.2
133.7	63.75	134.4
10.34	197	32.78
14.34	-198.2	22.56
-6.832	-27.56	198
100.4	-152.7	81.14
-180.8	-62.56	-58.38
142.1	-106.6	-91.94
-147.5	105.1	-84.77
28.35	-162.8	-112.6
98.87	-86.71	150.7
67.14	188.4	1.127
-170	-102	-26.36
104.3	163.8	47.73
-92.04	-74.78	-161
-95.56	-127.6	-120.8
170.7	-103.9	-8.297
-65.44	154.5	108.9
103.1	-171.3	-0.882
-154.3	82.87	96.57
-44.01	28.87	-193
-55.16	-153	116.4
117.2	-69.64	-146.3
-61.17	156.4	108.6
124.9	-95.67	-123.5
152.8	-48.48	-119.6
-178.5	-85.08	-30.27
-4.259	104.6	-170.4
-109.6	-156.7	58.62
152.5	-107	-72.6
49.01	70.53	180.6
40.03	-144.6	-132.2
-50.02	183.2	-62.8
-53.54	-157.8	-110.6
-120.3	-159.7	3.466
-56.8	-144.5	126
-1.053	-150.5	-131.7
174.5	36.64	90.67
-63.45	125.9	141.9
148.9	87.54	-100.9
-104.4	-62.26	158.8
-93.77	128.7	121.1
-111.2	-61.66	154.4
38.64	109.5	-162.9
118.6	143.8	-72.5
-62.26	-130.3	-138.3
-104.4	164.8	-44.1
-23.99	87.28	178.3
-99.08	-130.2	115
-131.3	143.7	46.01
-51.02	-110.8	158.5
-93.02	-65.13	164.6
-167.3	32.43	-104.6
-126.5	-97.25	-120.6
-98.72	-123.6	-122.3
-141.5	-19.62	-140
100.4	124.6	-120
-109.4	-86.86	143.1
-117.2	-45.11	-155.7
-143.6	-9.798	138.9
67.24	117.6	-147.1
67.46	-185.9	-30.06
39.05	-89.79	174.4
142.4	-69.05	-122.3
171.3	-16.55	-101.9
-147.3	118.2	65.63
-85.77	172.3	-54.37
112.4	125.1	108.2
56.71	116.9	-152
85.01	180.9	6.485
112.5	64.09	-152.4
125.4	-143.9	-59.84
-135.3	136.8	54.71
-113.5	83.4	142
-121.7	144.2	-66.39
3.283	151.9	-130
-118.7	-96.04	129.2
73.15	185.5	15.37
-126.2	114.3	-105
-58.89	-125.9	-143.8
120.9	123.7	100.4
-96.68	65.35	-162.4
50.6	118.6	152.9
-79.45	171.8	64.55
-154.7	-119.8	-41.48
49.47	138.6	-135.5
115.5	163.2	-5.852
137.1	135.8	-52.58
-83.15	-132.5	-124.7
106.6	-68.41	-154.8
167.7	-61.06	-90.35
84.47	43.94	175.9
125.2	-98.7	120.7
127.8	18.97	152.7
-33.36	95.99	-172.3
134.3	-60.24	135.4
-140.2	-97.39	104.2
23.01	198.6	-3.415
148.1	-134.2	7.607
-137.3	47.27	137.6
-98.85	32.22	-170.9
73.45	-89.16	163.3
60.59	-157.6	-107.2
-18.65	155.4	124.5
-132.9	-149.2	-7.504
-67.41	-151.4	112
-101.5	-110.2	-132.5
149	47.8	124.6
-16.73	53.41	192
184.8	62.15	44.6
125.3	-121.4	-97.77
-123.4	148.2	-52.84
-193.1	-47.39	-21.25
-30.57	170.5	-100
-135.7	-146.7	-8.778
183.1	-73.74	32.17
-17.14	99.46	172.7
13.43	39.72	-195.6
-29.24	-152.3	126.3
-53.8	190.4	28.95
144.3	132.1	41.76
-156	-118.4	-40.39
19.58	-33.21	196.2
-149.9	112.2	70.39
-72.17	-145	117.3
136	104.5	-102.9
-81.16	-116.6	140.8
179.1	84.11	-29.24
-120	-158.1	-24.71
-195.5	-20.15	-36.8
153.9	-52.83	-116.2
-172.9	63.21	78.07
67.37	-121.3	-144
20.74	-140.6	140.7
-83.42	-50.6	174.6
-128.8	-145	48.75
-14.53	-63.17	189.2
-114.8	-163.8	-2.342
190.7	1.732	60.4
-99.77	40.89	-168.4
121.2	-159	-5.763
-144.5	32.46	-134.5
54.32	-86.31	-172
56.09	163.5	-100.6
17.01	-183.6	77.54
-22.77	-102.8	170.1
-131.1	103.1	-110.4
156.5	-123.7	-13.83
-31.03	142.3	137.1
172.1	-98.24	26.72
-130.9	109.6	104.2
17.13	198.7	-14.36
59.79	10.39	190.6
107.3	-149.1	79.22
-153.3	56.46	115.4
62.04	-147.3	-120.3
-33.65	-96.39	-172
27.58	-156.7	-121.2
-168.7	9.926	-107
197.5	6.573	-30.77
67.47	54.94	-180.1
-25.21	-162.1	-114.5
161.5	74.74	91.21
94.82	-27.1	174
-164.9	-69.07	89.58
-95.57	-156.4	80.13
-14.5	5.958	199.4
-0.6308	-140.6	-142.3
93.51	-171.3	43.69
120.5	-114.7	-111
-108.6	119.1	118.4
58.32	-156.6	109.9
119.4	-159.9	-13.6
37.31	97.3	170.7
-16.39	-186.2	-71.06
-193.3	-48.87	-16.05
72.1	110.4	150.4
66.1	-61.27	-178.5
78.79	-145.1	-112.8
-57.96	171.3	-85.39
-18.55	-77.24	183.5
-99.76	124.2	-120.9
121	95.07	-127.7
-79.65	-55.54	174.8
-77.82	121.1	138.9
51.5	173.2	-85.75
-150.6	43.61	-124.1
-180.8	-85.41	-0.6781
-128	-152.5	18.95
-172.9	-97.27	25.52
10.03	135	147.2
-13.27	164.9	112.4
9.18	188.5	66.3
33.22	-101.5	-169.1
-50.41	-10.03	193.3
-67.68	-152.1	110.9
69.74	-181.5	-46.79
126.1	-124.4	92.95
-123.1	-93.55	126.9
125.8	34.15	-151.7
-44.69	-132.1	143.4
-118.8	33.15	157.4
-142.6	-122.4	68.59
60.76	74.31	175.5
79.21	-180.6	-33.29
128.2	-150.2	31.62
-47.52	-179.5	74.34
97.65	102.7	141.1
-1.63	-171.7	-102.5
-90.3	138	113.1
-65.84	-80.12	171
-198.2	4.713	26.43
-188.9	17.04	63.5
137.3	-125.5	-73.42
119.1	155.3	-41.07
-137.1	-22.31	143.9
87.4	125.7	128.7
-76.49	118.7	141.6
-65.99	-162.9	95.37
82	-135.4	122.2
-27.32	72.13	184.5
-50.01	191.2	-30.72
107.7	-120.1	118.3
22.6	144.8	-136.1
120.8	48.1	-152
-105.9	169.4	-8.953
-178.8	36.56	-81.87
108.1	-126.9	110.6
25.49	-61.05	-188.7
-83.93	176	-44.41
136.2	-36.81	-141.7
110	85.57	143.4
-73.65	71.72	171.6
-98.35	-97.67	144.2
-44.48	-195	1.082
-62.39	-100.4	-161.3
138.5	-1.511	144.3
-99.51	-32.29	170.5
-109.3	155	-63.43
-129.6	-105.6	-109.8
54.33	-176	78.01
61.83	-186.9	-35.39
53.1	-75.62	-177.4
110.5	104.2	-130.1
-18.28	-199.1	6.163
145.8	-13.04	136.3
-159.9	-99.56	-67.33
-111	56.42	156.5
-112	111.8	122.4
5.835	151.6	-130.3
147	48.52	-126.6
-54.56	-156.2	-112.4
128.7	140.9	59.74
172.8	-17.05	-99.17
-70.37	161.8	-94.22
123.2	135.4	80.45
92.51	-110.4	-138.7
-160.7	-27.26	115.9
-189.5	63.77	4.881
144.7	-138	2.803
112.3	123.3	-110.3
-166.4	-71.85	-84.52
-4.67	-142.7	-140
-133.5	-138.8	54.17
-164.1	-77.67	83.81
107.5	-159.9	-53.47
-55.11	-186.6	46.33
-11.3	-103.9	-170.5
-135.3	-109.7	98.36
68.8	-134.4	131.2
-84.44	-148.2	104.4
-79.7	-136.5	-122.5
119.8	136	-84.62
147.7	134.5	9.004
-5.599	-109.5	167.2
-146.8	109.3	-80.56
-16.92	-163.2	-114.3
-183.8	78.03	11.45
-121.5	127.1	95.26
137.8	32.05	141.3
95.92	110.1	136.7
37.37	-128.4	-148.7
137.8	110.9	93.37
-187.8	66.31	18.49
90.7	-157.3	83.78
95.78	-173.2	28.94
169.5	35.47	100
-160.4	114.3	-34.52
120.4	139.3	-78.02
25.5	81.27	181
-63.79	-50.16	182.8
-68.43	-152.7	109.5
-70.86	183.1	38
-128	-119.7	-96.39
46.8	159.2	-111.6
-164.9	43.79	-104.4
124.6	1.047	156.4
91.04	150.5	95.22
-199.2	14.93	-9.8
-29.44	-153.1	-125.2
-170.4	15.05	103.5
-159.3	107.6	55.13
144.6	-137	17.77
-47.3	-170	94.17
59.26	190.8	-9.266
107.4	-98.28	-137.1
-95.17	-175.4	13.17
-133.5	102.5	-108
134.5	101.9	107.4
-48.16	-110	160
79.71	93.72	-157.7
-157.9	35.12	-117.6
186.7	-43.67	-56.9
-71.92	172.4	71.53
199.4	-15.27	-4.225
-19.17	-148	133.1
7.914	77.35	184.3
-161.1	113.4	-34.24
-83.7	108.3	-145.8
-130.6	-149	-27.47
-134.4	41.57	142.1
-19.1	195.8	35.82
78.56	35.13	180.5
-113.7	131.3	99.14
95.41	159.7	-73.42
-170.5	-56.83	87.78
123.8	130.2	-87.94
31.83	140	-139.2
-166.9	-68.47	86.36
-125.4	-23.49	154
199.5	-2.062	-13.76
42.22	176.4	-84.24
-126.6	67.83	139.2
-127.4	105.6	112.4
176	20.85	92.61
-88	122.8	-131.1
132.9	70.04	-132.1
-125.9	-59.19	-143.7
-169.4	-82.89	-66.61
158.5	16.9	120.8
114.3	-140.5	-84.84
-112.6	132.3	-99.04
7.381	141.5	141.1
-44.62	-164.2	105.1
-108.3	-152.8	-70.01
150	-44.53	-124.6
-135.1	-83.76	121.3
-120.6	-48.93	-151.9
-195.7	38.19	-15.14
61.29	-21.01	-189.2
-17.89	-141.8	-139.9
95.76	-16	-174.9
-111.8	119	115.5
-147.6	-38.69	-129.3
119	35.09	-156.8
-199.1	16.77	8.642
-136.2	72.71	127.2
-137	112.3	-92.93
-127.9	-127.1	86.58
64.77	133.5	-134.1
123.2	-133.3	-83.99
118.4	-128.7	96.98
127.2	-120.7	96.17
119.4	-121.3	-105.1
137.3	121.8	79.47
-125.5	141.6	-64.83
38.02	-119.6	155.7
-41.52	-134.2	142.3
30.42	-58.36	-188.9
-64.48	-152.4	112.3
-19.7	100.7	-171.7
149	45.59	-125.4
139.5	4.112	-143.2
-54.39	-185.3	-51.97
99.94	-136.8	-106.3
-91.12	-82.18	-157.9
69.66	-187	-13.88
127.4	-81.75	130.7
-5.743	141	141.7
1.655	-80.13	-183.2
-78.73	139.5	119.8
15.2	74.75	-184.9
99.26	-111.8	132.9
-151.3	69.88	-110.6
45.55	-194.7	-1.19
129.3	75.15	132.8
-114.4	-35.31	160.2
65.06	-176.9	-66.76
-144.9	18.13	-136.7
-77	-180.4	39.01
-143.6	-80.78	-113.4
-127.4	106.8	111.2
-84.41	69.43	-167.5
-130.5	79.18	129.2
-78.12	-113.9	-144.7
103.6	-110.8	130.3
141.9	-91.66	-107.1
56.57	-185.1	-50.39
148.3	-54.84	122.5
-85.25	50.68	173.7
129	140	-61.37
-88.23	151.6	-96.17
-123.6	-84.28	132.7
-168.2	-80.55	72.33
-123.8	93.53	126.2
-54.45	30.61	190
-130.5	-112.5	-101.6
41.93	185.2	-62.67
142.6	130.6	51.2
145.5	-109.4	-82.74
103.9	-137.7	-101.2
-148.5	-51.02	-123.9
-187.2	26.79	-65.15
-109.5	117.8	118.9
92.37	-173.9	35.07
48.37	-64.81	-182.9
73.12	185.2	-19.22
170.5	-101.3	-26.06
-133.9	-133.5	-65.17
141.3	-137.4	33.99
-111.4	144.9	81.18
-24.37	150.6	-129.3
72.28	-163.5	89.75
-198.9	-7.295	-19.15
163.1	-115.2	-10.76
-12.7	133.4	148.5
155.9	-122.8	25.14
-143.4	-84.32	111
27.64	7.483	-197.9
151.9	-25.92	-127.5
14.67	50.54	-193
-68.96	-127.7	-137.6
-117.5	94.49	-131.4
159.2	55.59	107.5
-43.42	11.41	-194.9
103.8	138.6	100.1
124.9	75.06	-137
-135.5	146.4	14.37
-136.7	-50.75	-136.9
-175.6	-94.92	-12.73
-100.4	104	-138.2
-86.46	-139.6	-114.2
-133.5	-53.14	139.1
59.09	-174.1	-78.75
-55.07	88.36	170.8
-46.62	44.9	189.2
-161.4	-103.2	57.35
-7.48	108	-168.2
-180.2	51.66	69.63
-131.4	63.4	136.8
13.18	169.2	105.8
51.06	-143.8	129.3
131.2	-57.91	-139.4
17.75	197.7	24.87
168.7	-75.78	-76.03
138.9	59.37	131.1
118.7	136.8	-84.74
-23.23	-46.58	193.1
195.4	-37.04	-20.84
0.5106	2.256	-200
-14.35	-150	-131.5
-135.3	77.42	-125.3
-191.6	-29.17	49.2
-92.71	176	21.05
96.9	136.8	109.1
-149.7	132.2	9.835
181.3	82.75	-17
-96.7	-112.4	134.2
-127.7	-144.3	-53.67
15.85	1.489	199.4
66	149.3	115.5
134.2	-148.1	7.679
-132	-81.78	126
68.24	-16.55	187.3
-114.7	-89.61	137.2
-175.6	-51.44	80.73
93.42	-157.6	-80.22
-190.3	38.59	47.88
180.7	67.86	52.54
-97.42	-113	-133.2
-125.7	104.4	-115.3
158.6	70.84	-99.1
-76.39	182	-32.03
-60.04	-59.44	181.3
-118	35.19	-157.6
-187.6	60.59	33.57
106.2	-96.29	139.4
-134.3	-147.5	14.55
123.7	-116.7	-105.2
-4.524	-136.5	-146.1
77.84	-60.96	-173.9
78.4	-78.45	166.4
174.8	84.24	48.56
-27.02	-130.6	149
-142	-133.1	46.02
22.24	-16.69	-198.1
-172.1	-86.39	-53.98
-192.9	25.25	46.45
45.44	-46.05	189.2
77.44	139.2	-120.9
-197.8	24.67	15.92
-71.63	-112.6	149
-124.3	-154.4	26.6
183.1	51.65	61.69
97.39	119.3	127.6
-168.2	-35.68	-102.1
64.25	61.65	179.1
180.1	47.06	-73.12
37.76	-154.5	121.3
-67.78	172.9	74.15
-15.51	-173.8	-97.75
192.3	-54.35	-8.728
168.7	59.88	89.27
-96.43	-4.285	-175.2
-169.5	-48.63	-94.4
162.9	92.58	69.91
-53.26	-105.9	-161.1
-115.7	-61.98	150.9
-2.513	142.3	-140.5
-85.91	-86.13	-158.7
129.9	60.81	-139.4
-170.9	93.14	-46.07
53.65	5.604	-192.6
-88.75	179.1	7.929
30.62	143.8	135.6
120.6	148.5	58.38
6.496	-71.81	-186.6
178.5	-3.038	-90.06
76.02	164.7	-84.26
153.2	-128.5	-4.103
119.1	-119.9	-107
135.6	-66.8	131
-81.42	177.4	-43.74
-94.72	-134.2	-114.1
118.7	116.1	-111.5
84.49	55.59	-172.5
-70.18	-176.2	-63.47
-40.18	153.4	121.8
95.4	83.16	154.9
150.6	5.048	-131.6
-24.91	-93.53	-175
103.4	-168.1	32.25
101.3	167.6	-40.46
138.7	121.8	76.96
-160.8	113.6	35.26
-69.11	-48.04	-181.4
-30.31	178.2	-85.67
131.2	-134.8	-67.87
61.92	119.3	-148.1
32.14	196.2	21.45
63.14	-78.3	172.9
110.1	134.3	-99.19
-62.34	1.363	190
194	-35.46	33.11
104.4	85.95	-147.3
-94.07	-162.9	68.02
-181.1	-79.54	-29.86
150	-106.5	78.46
-121.9	158.2	11.16
-189.4	28.03	-57.78
88.37	-147.2	102.5
35.08	-180.5	78.73
118	9.756	-161.2
-95.8	-85.79	153.2
-142.9	-116.7	-77.16
-113.4	-97.08	-133.1
166.5	82.69	73.79
-9.647	12.66	-199.4
-117.2	47.03	-155.1
95.71	172	35.25
-172.8	-10.86	100
84.26	-143.8	110.6
-35.4	177.5	-85.05
57.99	-129.8	140.7
-96.89	-98.81	144.4
-25.25	8.325	-198.2
84	0.1902	181.5
-29.05	197.9	-3.267
-21.62	-147.4	-133.4
-20.12	104.2	169.5
-165.6	107.4	-32.02
189.2	57.47	-30.13
40.32	-172.3	-93.26
190.2	60.01	-15.34
110	149.9	73.69
94.07	-80.92	-156.9
127.1	-140.8	63.51
179.6	-5.949	87.88
-55.32	161	105
-9.208	-186.6	71.3
-76.59	-118.8	-141.5
101.4	-105.6	136.3
-72.6	91.51	162.3
23.64	177.5	89.09
199.8	7.857	0.4318
73.46	-121.9	140.5
111	-117.2	118.1
33.07	192	-45.21
-137.2	-105.8	-99.9
-157.2	103.4	67.86
32.89	-107.3	-165.5
132.4	-128.9	-76.55
121.5	-45.08	-152.3
124.5	131.9	84.34
-6.783	170.2	-104.8
198	24.62	-13.76
193.2	-34.89	37.99
87.88	-179.4	9.081
-135.5	-82.01	122.1
-41.95	-156.9	116.6
-108.6	121.6	115.8
-85.73	110.7	142.8
-13.77	148.9	-132.9
-8.804	57.83	-191.3
-80.61	-125.7	-133.1
-0.7621	-192.9	52.77
123	105.8	-116.9
13.38	60.85	-190
-165.7	97.6	-55.02
152.5	-112.7	63.42
40.75	-182.3	71.39
-109.9	113.6	-122.5
-53.76	-144.4	-127.5
100.3	46.44	166.7
118.6	111.6	116.1
130.9	-73.27	132.3
-6.278	-132.5	149.6
30.69	188.5	-59.5
50.75	139.5	-134.1
175.8	85.25	-42.83
74.85	-129.1	133.1
-160.8	86.87	-81.29
34	-194.6	-31.07
77.55	52.41	176.7
-44.15	-30.33	192.7
-97.31	-65.49	-162
-146	120	-65.4
138.2	-48.88	-136.1
-57.47	139.6	131.1
-11.17	185.1	74.98
122.4	34.41	154.4
61.63	177	69.77
186.3	-50.89	51.83
-54.07	-167.5	-95.04
-109.9	19.8	165.9
-115.3	83.89	-140.2
-98.06	126.5	119.9
15.11	141.9	-140.1
54.41	-159.4	-107.9
58.78	28.15	-189.1
-117.6	-53.04	152.8
-93.31	-175.3	23.99
97.02	124.6	122.7
-9.459	-72.2	-186.3
160	112.7	41.25
-18.53	174	-96.82
6.369	-173.8	-98.8
-45.78	12.84	194.3
40.4	-117.6	-156.7
146.2	125.6	53.4
122.4	-106.3	-117
94.75	-67.81	-162.6
-51.57	-112.3	157.2
-133	82.96	-124.2
-67.65	-47.5	182.1
131.9	117.3	94.01
-134.1	-65.6	133.1
-40.2	155.6	-119.1
-87.57	-179.3	-13.87
0.07636	-161.5	-117.9
-145.4	-121.8	-63.38
-120.5	152.8	46.12
-135.7	-83.66	120.7
-190.3	46.26	-40.68
-18.13	160.2	118.4
-42.95	175.1	86.66
-78.94	-129.2	-130.7
176.1	-17.95	93.08
-70.86	131	-133.5
152.9	-64.22	-111.8
-199.6	-0.1545	-11.83
-118.4	143.6	-73.22
-156	101.4	73.29
106.3	156.7	-64.4
-132.6	-42.26	-143.6
-121.9	91.69	-129.4
55.36	-133	-138.8
77.28	-184.3	-8.22
-41.83	-153	-121.8
27.45	-168.8	103.6
127.8	-122.7	-92.78
-80.85	19.54	181.9
157.3	37.81	117.6
-16.62	-123.5	156.4
110.5	43.88	-160.8
-147.6	47.77	126.3
-139.1	-44.96	136.5
-110.5	-112.9	122.7
35.27	-5.026	-196.8
132	-148.3	-24.37
59.93	187	38.08
127.6	-86.4	-127.5
87.07	-168.3	63.89
-23.11	-5.352	-198.6
-162.3	-90.1	74.4
-154.6	-100.2	-77.75
-167.9	-76.27	77.38
-171.3	-50.89	89.87
-133.9	122.6	-83.96
-61.99	153.3	-112.5
141.3	-32.9	-137.6
-92.58	-171.1	-46.57
8.503	-198.6	-21.99
-111	2.993	166.3
-120.9	60.1	-147.6
167.7	108.9	4.817
-75.71	141.4	119.4
131.6	125.8	-82.75
62.16	-147.1	-120.4
144.3	-34.97	133.9
-128.5	-132.2	-77.63
-95.34	106.1	140.2
128.6	-137.6	67.25
-95.07	-88.32	-152.2
-122.6	46.12	151.1
-52.06	79.25	176.1
164	114.4	-2.178
140.5	140.4	-23.07
-199.3	7.206	-14.79
-145	-20.2	136.3
-144.5	47.47	-129.8
-65.41	-176.8	66.82
135.3	123.7	80.03
62.97	-103.8	-159
174.8	-5.433	96.97
58.97	166.6	-93.67
-71.92	135	-128.8
96.86	95.32	146.7
-143.8	131.6	-44.61
62.01	139.6	129
15.42	199.3	7.49
66.06	-179	60.03
-128.8	-152.8	8.94
-143.6	114.4	79.39
-146.3	89.96	-102.5
144.9	-49.81	-128.5
-148.3	52.47	-123.6
-128.9	-33.96	149.1
-182.4	46.51	67.55
-40.44	-190	47.58
-101.6	170.4	-24.92
167.2	-44.59	100.3
-39.04	75.74	180.9
155.8	74.84	100.7
95.19	175.9	0.1487
142.6	58.28	127.5
-164	113.3	16.3
-68.11	126.6	139
-114.5	162.5	21.95
139.5	-37.59	138.3
-66.56	149.6	114.8
129.1	14.95	-152.1
20.26	174.4	95.85
-20.68	197.6	-23.06
-155.5	40.36	-119.1
89.43	-0.08525	178.9
84.59	93.24	155.4
-122.8	150.6	47.49
-139.2	-140.7	29.07
48.28	131.7	142.6
10.42	-115.9	162.7
-128.3	-114.9	-101.6
-103.5	113.1	-128.5
-140.3	-78.29	-119.1
-47.55	-47.81	188.3
98.36	-113.4	-132.2
96.03	131.4	116.2
-14.44	183.8	77.47
-124.2	-126.4	92.71
88.54	126.2	127.4
67.85	-96.92	-161.3
-114.5	-49.32	-156.4
48.14	84.72	-174.7
148.8	98.74	-90.04
135.6	-113.4	93.61
13.85	134.5	147.3
99.41	85.43	151.1
-8.998	-160.2	119.4
-114.2	-99.7	130.5
152	124.9	35.9
105.7	28.16	167.5
119.5	148.4	-60.76
-113.8	16.07	-163.7
-134.3	-76.64	126.8
27.36	-103.3	169.1
-68.31	125.7	139.8
-199.9	-7.557	-0.8559
-125.9	150	40.65
122.3	-111.1	112.7
97.12	-143.7	99.59
-63.64	170.1	-83.68
-122	105.7	-118.1
24.4	159.6	118
33.82	-139.8	-139
-123.3	144.7	-62.17
-93.28	-147.8	-97.18
-176.1	-53.86	78.02
55.02	-36.99	188.7
-133.5	-63.41	134.7
-121.1	-105.2	119.4
124.8	-23.1	154.6
-179.7	81.89	31.5
-107.4	-167.4	-21.28
-144.9	129.8	46.44
-97.35	-158.1	-74.35
147.1	-103.9	-87.02
166.6	-35.17	105
34.53	168.3	-102.4
-108.4	-165.5	29.47
-149.6	-120.2	56.38
-118.7	120.6	-106.6
119	-136	85.6
-11.31	-50.35	-193.2
153.7	3.181	127.9
20.74	102.5	-170.5
191.1	-8.573	-58.48
-113.1	-62.47	152.7
-130.9	132.4	73.09
-92.98	-95.19	149.3
113	-60.69	-153.5
-14.63	-45.25	-194.3
27.67	-86.42	-178.2
-94.7	172.9	-33.74
-42.64	79.79	178.4
-115.4	-112.2	118.6
-93.1	-139.5	-109
152.9	-62.98	112.5
-101.2	-59.37	162
-119.4	88.46	133.9
-149.8	10.31	-132.1
-105.8	168.9	17.17
-125.6	26.01	153.4
-88.31	173.9	44.3
131.6	-108.2	-104.8
179.8	55.8	67.59
-26.55	162.7	113.2
94.52	-9.171	-176
-84.86	172.5	55.23
138.4	-133.9	-54.21
81.02	-99.84	153.2
138.7	-21.18	142.6
-88.84	164.6	-70.84
-91.5	168	-58.28
165.4	89.97	67.49
-145.7	-47.92	-128.4
77.73	108.6	-148.9
-148.1	74.17	112.2
83.28	179.5	-29.18
-149.2	119.1	59.61
68.21	-63.3	177
6.713	-154.6	-126.7
-48.06	61.02	184.3
95.58	123.3	125.1
-156.2	116.3	45.64
83.47	118.9	137.5
-160.5	53.96	106.5
-151.2	-120	-52.27
28.71	122.3	-155.6
-132.3	-121.3	88.19
56.84	102	-162.4
-34.74	-193.1	-39
96.79	34.11	-171.7
68.65	-40.16	183.5
67.4	34.06	185.2
-159.4	-80.48	90.05
-164.4	-78.08	-82.96
-195.2	-42.48	-8.611
-53.99	170.2	-90.03
-0.1502	186.2	-72.94
-66.53	30.01	-186.2
8.029	-169.1	-106.6
153.9	86.02	94.35
-161.3	-21.04	-116.4
-132.7	-135.3	63.99
97.99	-93.62	-147.1
-56.35	-141.9	-129.2
137.7	-36.55	140.4
-98.78	124.1	121.8
23.38	-135.1	145.6
174.1	47.04	-86.56
130.8	-140.9	-55.07
-122.3	-115.8	-107.8
134.5	-146.6	19.85
-163.9	-111.2	27.68
78.72	153.2	101.7
142.7	-36.18	-135.4
-136.1	-131.8	63.95
-196.1	3.762	-38.94
104.1	-158.7	63.08
17.56	173.8	-97.44
159.2	111.7	-46.71
-134.3	147.6	-12.96
-138.4	119.5	81.01
151.9	67.63	111.1
-34.06	-75.45	182.1
-93.23	-115.3	-134.2
-35.59	-108.4	-164.3
-140.8	-17.52	141
5.329	-99.27	173.5
-113.1	106.1	126.3
-34.48	165.5	106.9
137.9	140.8	-33.88
-59.5	-109.8	-156.2
133	-131.9	69.99
99.15	11.13	-173.3
-33.69	171.5	-97.24
54.78	-129.9	141.9
167.6	-45.7	-99.17
140.5	141.6	-14.72
108.6	-144.6	-85.46
74.67	19.52	184.5
-127.9	-51.74	144.8
63.01	86.49	169
85.17	62.69	-169.7
-52.35	-175.1	81.22
51.83	173.4	-85.03
192.5	-31.56	44.06
76.8	-33.53	181.6
142.2	-72.04	120.8
-43.86	-131.9	143.8
79.28	182.2	-22.88
7.001	-156.5	124.3
-133.4	132.8	67.64
-146.8	-33.49	-131.6
-87.94	166.9	66.5
199.9	4.093	-5.613
-121.2	-21.47	157.6
114.8	-148.5	-69.13
93.15	-170.5	47.39
70.55	-58.54	177.8
7.379	-199.8	4.657
197.5	25.47	18.94
126.6	127.2	-88.38
-19.18	-177.7	89.75
168.1	-76.94	76.25
-41.52	-112.2	-160.2
192.7	-45.47	28.31
128	-130	81.87
-116.7	140.6	81.34
125.9	11.56	-155
1.309	-169.5	-106.2
-132.4	-129.8	74.98
30.16	187.1	63.87
147.5	-78.17	110.1
4.742	-151	-131.1
-186.6	-14.66	-70.53
-132.5	-69.73	132.6
92.96	-104.6	142.9
-4.306	-88.23	179.4
-103.3	-167	-37.68
-133.3	125.6	-80.28
154.6	121.5	-36.55
-51.89	-176.1	-79.3
-136.5	136.7	51.75
145	-7.333	137.6
158.4	43.8	-114
-116.9	158	36.97
-172.8	48.05	88.55
125.2	-101.3	-118.6
133.6	-52.02	-139.5
-115.2	126.7	103.2
138.8	-69.81	-125.9
-148.6	133.6	-7.698
6.149	198.1	-26.58
-113.3	33.6	161.4
198.5	-8.296	22.75
-161.1	107.4	-50.19
82.33	82.47	-162.5
-5.503	100.4	-172.9
148.6	116.4	66.12
97.81	143.7	-98.89
-70.37	-16.85	186.5
172.3	101.5	4.524
-115.6	-147.3	-70.23
75.54	-62.97	174.2
96.01	-161.9	-67.59
-131.8	-23.83	-148.5
28.82	-128.1	150.8
95.93	160.1	71.87
95.68	-103.2	-142.1
-70.37	134.4	130.3
78.19	-150	-106.7
-64.52	-125.2	-142
126.3	-78.25	-133.9
-119.3	-160.1	10.78
-157.9	47.05	113.4
-16.34	157.4	-122.3
124.5	-139.2	-71.6
-5.829	155.4	-125.8
-166.4	90.8	-63.8
-103.2	-151.6	-79.89
-190	47.76	40.26
-15.34	181.8	81.83
-0.3175	70.77	187.1
60.48	102.4	160.8
-115	154.6	53.5
-187.9	-63.87	-24.43
-68.96	152.5	109.5
120.5	-35.48	155.6
198.1	-6.777	26.83
-175.5	88.28	37.46
-36.84	117.8	-157.4
-136.7	-81.32	-121.2
99.7	110	134
165.1	-92.48	64.65
163.5	105.2	-47.07
-98.95	82.07	153.2
88.44	158.7	83.72
38.32	97.51	-170.4
-119.5	34.22	156.7
167.9	82.63	-70.58
-1.453	-128.6	-153.1
75.39	-156.1	-99.76
75.07	105.9	152.2
-10.52	34.25	-196.8
-119.9	-81.92	137.5
17.1	20.51	198.2
-122.1	-144.1	65.93
-150.7	112.9	-67.43
-111.2	-107.1	127.2
144.6	-137.3	15.54
-161.6	75.57	90.45
-110.8	-83.07	144.3
11.9	-188.4	66.17
7.161	29.28	-197.7
184.4	53.44	-56.04
116.4	-111.5	118.5
24.89	-40.34	-194.3
-116	-8.908	-162.7
-33.57	111.4	-162.6
-172.6	41.43	-92.21
101.2	78.78	-153.5
-4.866	190.3	-61.18
-174	23.86	-95.76
117.5	-117	111.9
-127.4	152.9	19.68
12.2	173.4	98.84
-38.55	-65.64	-184.9
139.6	19	141.9
35.45	175.8	-88.51
121.2	-101.7	122.3
-108.6	-166	25.1
-193.1	21.67	47.32
24.55	127	-152.5
138.8	91.36	-111.3
108.2	119.7	-118.2
-22.56	-17.44	198
-123.1	131.3	-87.24
-139.1	-16.82	142.7
113.9	-148.1	71.35
-111.5	109	125.2
112.2	-107.7	125.8
1.277	-199.4	16.02
-146.1	127.3	-49.59
-115	114.2	-117.2
-81.05	93.07	-157.4
-83.59	-177.6	38.3
-166.6	-106.4	-30.52
-8.927	38.65	196
-94.82	-28.73	173.7
154.4	9.478	126.8
129.9	-13.5	151.5
116.7	144.5	-74.2
-37.23	-156	-119.5
78.35	-100.3	154.3
176.4	-6.511	94.02
136.9	93.95	111.5
25.07	-168.3	-105
-166.2	20.1	109.5
148.6	100.4	-88.58
151.7	87.44	96.6
137.7	62.34	-130.9
121.8	1.238	-158.6
-143.6	112.7	-81.72
-182.6	66.99	-46.65
-139.2	10.24	143.3
162.4	12.28	116.1
82.29	-145.2	110.2
149.5	-126.4	-40.81
90.83	-144.4	-104.4
-121.5	118.6	105.6
153.4	126.8	19.82
-143.9	-4.326	-138.9
-111.1	-4.332	166.3
-87.49	162.5	76.99
115.3	84.75	-139.7
171.7	57.23	85.2
-23.64	-135.4	145.3
-101.1	-100.5	140.3
53.16	-150.4	120.7
107.3	-134.4	102.1
98.18	173	21.03
-70.01	126	-138.7
-93.92	-176.2	11.1
-119.9	29.47	-157.4
117	-38.07	157.7
145.7	-136.8	-7.485
2.755	66.03	188.8
-90.99	118.6	-132.9
-161.2	10.98	-117.8
154.1	-64.33	-110.1
55.34	-147	-123.8
-107.2	-57.78	-158.6
-122.8	70.39	-141.3
98.37	143	99.4
148.6	65.09	-117
167.9	37.9	-101.8
-64.06	-136.6	131.3
-149.8	-79.43	106.1
-155.6	-94.54	-82.76
-88.49	-160.6	79.96
26.71	154.5	124.1
59.98	-145.6	-123.3
123.2	-110.9	111.9
138	-139.9	37.08
87.52	165.3	-70.93
131.4	86.2	123.7
-83.43	-124.7	132.2
-133.5	-118.7	-89.9
183	-78.86	17.53
-151.8	74.49	106.9
157.7	-123	1.377
72.92	185.9	11.01
121	74.74	140.7
-8.979	71.6	186.5
-159.8	-59.82	104.4
-63.04	-189.1	15.97
-181.2	-26.81	80.31
-134.7	49.56	139.3
1.338	-2.682	-200
-166.8	80.82	75.19
98.46	51.79	166.2
-118.1	-101.5	125.5
94.15	-174.6	-25.21
19.29	1.423	-199.1
-140.2	108.9	-92.13
-124.4	-147.7	51.85
60.72	-78.06	-173.8
-152.2	51.43	119.1
137.3	-118.8	-83.9
-126.5	-98.13	119.8
108	166.1	27.33
51.64	-146.3	126.2
-32.02	142.9	136.3
180.3	-44.37	-74.28
118.1	79.78	140.3
-61.24	115	-151.7
189.1	1.265	-64.99
-127.1	69.15	138.1
108.1	61.54	-156.6
-152.8	72.3	-106.8
145.1	-11.51	-137.1
14.19	-152.4	-128.8
-52.44	6.782	-192.9
-176.4	-87.88	-34.22
43.73	-125.5	-149.4
26.04	28.97	-196.2
104.9	42.83	164.8
174.5	53.26	-82.01
112.1	-19.16	164.5
173.3	-9.577	99.32
-161.9	-16.08	-116.4
-119	146.2	-66.75
-119.4	-67.25	145.7
-100.3	44.6	-167.2
116.5	-157.4	-40.83
130.4	65.88	136.5
-181.5	-84.11	0.2129
54.46	-122.4	-148.5
137.1	-144.3	19.81
118.4	106.1	-121.3
66.66	188.6	-0.1336
118.5	-161.1	-2.784
-138.7	-68.34	126.8
192.5	48.37	-24.3
-182	-65.23	51.18
-22.35	-161.9	-115.3
-47.04	-144.2	130.4
121.9	130.2	90.45
-121.6	121.9	101.8
57.51	157.9	108.5
131.6	23.65	148.7
-149.4	-62.53	117.4
72.76	-10.42	-186
29.68	-121.7	155.9
137.8	-19.55	143.6
45.02	173.9	-87.93
183.1	-59.07	54.6
81.46	-157.8	92.02
-85.16	-170.3	61.19
-76.17	-182.6	-29.53
-134.8	56.94	136.3
105.8	152.5	-74.52
5.135	28.59	197.9
24.29	-157.2	-121.3
-102.8	-167.3	38.26
-173.6	99.17	3.856
11.06	61.67	189.9
-122.4	-100.4	-122.2
173.2	98.06	19.22
-74.01	185.1	15.91
78.07	-161.6	-88.31
75.01	100.3	-155.9
-174.6	-83.71	50.24
122.9	132.9	85.16
135.9	-125.8	75.53
65.57	-178	-63.3
-120	87.94	-133.7
129.8	134.7	-70.69
-128.2	75.9	133.4
45.18	-150.9	123.2
-114.5	103.2	127.4
-125.5	-13.37	155.2
-1.355	1.087	200
-155.5	-81.75	95.59
141.2	-85.67	112.8
39.88	126.1	-150.1
-124.1	122.1	98.5
-126.8	119.5	98.22
-62.01	-188.7	23.49
-163.2	86.93	76.32
-154.7	121.9	-34.66
138.3	-85.37	116.5
82.63	164.8	-77.62
-3.984	169.2	106.5
-94.23	63.02	-164.8
153.1	-59.7	114
-155.6	-54.24	113.4
175.3	-31.6	90.98
118.6	122.7	104.3
-68.53	-180.1	-53.43
129.1	-113.7	-102
-69.28	-177.8	-59.8
-94.08	74.07	-160.2
56.53	-115.7	153.1
-141.3	-97.32	102.7
-61.22	-44.81	185
-145.1	-22.08	-135.9
-180.7	-47.54	71.27
119.4	-157.9	-28.38
-7.212	-135.5	-146.9
186.2	-64.82	33.71
-174.4	78.93	57.81
-49.3	185.9	-54.91
-79.84	166.7	76.4
-43.53	141.2	134.8
182	-61.43	-55.63
146	34.01	132.4
-154.1	54.57	-115.2
168.2	-50.2	-95.87
-98.46	143	99.3
69.45	116.2	-147.2
-101.2	100.3	140.3
122.4	-111	112.6
-186.1	69.96	-21.37
111	165.5	-17.34
92.7	141.1	107.3
-161.2	107.6	-49.53
119.7	96.23	-128.1
-183.5	73.03	-31.68
-4.924	184.7	-76.61
-100.5	5.684	-172.8
-25.02	101.5	170.5
-68.73	47.26	-181.8
-126.5	144.4	55.95
126.6	136.4	73.13
-196.3	-37.64	-7.821
166.9	19.45	-108.4
-91.55	-3.229	-177.8
-112.4	86.8	140.9
111.9	-161.3	38.37
-138.4	-31.16	-141
-98.48	126.6	119.5
-152.9	-127.4	-19.13
-165.3	-67.28	-90.31
81.55	-129.8	128.5
-52.95	-187	-47.13
99.82	-125.4	119.7
-179.4	-84.45	-25.8
-112.3	50.48	-157.6
165	-42.81	-104.6
38.43	-10.09	196
99.86	173	-10.34
-21.23	177.7	89.28
103.1	125.1	-117.1
-89.12	99.91	-148.6
-108.8	-113	-124.1
42	-158.9	-114
40.16	-195.8	7.471
-159.5	-34.83	-115.5
-184.2	-76.78	13.74
-58.4	114.8	-153
176.3	-6.403	94.22
-27.22	195.2	34.02
-146.8	132.8	28.81
-128.1	-147.7	-41.99
-163.2	-108.1	40.97
-64.14	177.3	66.81
27.82	-17.92	197.2
-170.6	-8.593	-104
-190	47.56	40.65
101	169.3	-34
87.19	116.4	137.3
-0.84	-106.3	169.4
-175.4	-46.06	84.25
93.43	16.9	176
-140.6	64.53	-126.8
34.32	-131.2	147
-176.8	86.85	-34.73
-129.4	57.24	141.4
-79.3	183.6	2.899
187	52.61	-47.63
-105.2	-76.6	-151.9
-119.3	160.2	10.03
-115.1	119.9	111.3
185.1	64.03	-40.47
34.9	69.36	-184.3
71.67	-126.1	-137.7
72.47	5.32	186.3
-192.8	53.04	4.7
-144.3	134.5	-33.18
7.272	114.9	-163.5
153.2	-119.7	-47.05
-153.9	-46.62	-118.9
100.3	-15.32	-172.4
49.91	-129.5	144.1
-163.3	111	-31.98
-178.4	-22.3	87.59
-33.89	-151.9	-125.6
-102.9	-130.4	111.4
110.7	-134	99.01
-168.5	101.2	36.91
-156.3	59.16	109.8
6.611	128.6	-153
180.7	-13.29	84.77
122.8	-118.9	103.9
89.67	-161.3	76.99
-135.9	-71.5	-128.1
126.9	96.77	-120.6
137.6	142.6	-27.28
135.5	131.5	65.91
-28.25	176.2	-90.29
-115.9	120.4	109.9
147	6.613	135.5
152.4	-85.04	-97.64
21.48	-167.4	-107.3
-42.75	192.1	-35.47
-124.9	-140.3	68.82
-125.9	152.3	-30.58
-18.46	183.5	-77.48
139.1	-9.694	-143.4
-2.576	135.2	147.3
88.79	124.9	128.5
156	123.3	-21.86
11.86	97.71	174.1
82.58	-111.3	144.2
-155.8	25.96	122.7
-9.597	77.94	183.9
-109.2	148.8	77.04
148	-129.6	-36.26
-136.9	-69.17	128.4
-128.5	89.6	124.4
-161.7	26.27	114.7
-188	-68.14	1.104
0.1337	137.3	-145.4
-154.2	54.3	-115.1
-128.9	57.82	141.5
-159.5	-120	12.16
183.4	-74.92	-27.54
37.4	163.7	108.6
-110.1	-126.9	-108.6
-140.9	-103.4	97.21
157.7	-115.8	-41.54
87.48	-126.5	127.9
-153.6	122.2	38.12
-65.45	158.7	-102.6
38.42	-141.1	136.4
-12.28	-116.4	162.2
-144.6	-125.2	-58.52
-39.61	121.9	-153.6
-117.7	123.1	-104.8
-101.1	166.5	-45.22
-168.9	69.26	81.78
32.53	-85.96	177.6
-137.8	-30.76	141.7
156.4	99.91	74.55
-149.1	-53.91	121.9
115.2	88.4	-137.5
115.5	98.4	-130.3
-136.2	-99.74	107.2
-188.2	47.48	48.42
95.97	149	-92.66
-96.24	-131.8	115.6
142	48.01	-132.4
93.27	164.4	65.33
-42.11	189.5	-48.12
-125.5	128.7	87.69
167	106.4	27.88
185	63.41	-41.67
-153.4	117.2	52.13
125.6	-86.49	-129.4
-44.04	-139.9	-136
42.23	-117.4	-156.3
14.99	190.1	60.33
149.3	126.5	41.52
-45.18	-185.5	-59.48
141.4	-103.8	-96.05
37.7	-106.8	-164.9
-130	-118.7	94.91
54.03	-184.6	54.82
-95.07	-133.9	114.1
-66.57	-31.71	185.9
-32.14	-129.8	-148.7
-26.49	41.85	193.8
-174	-64.09	75.01
70.09	118.5	145
-145.6	28.43	-134.1
-90.25	-149.3	-97.78
-130.3	-151.7	0.08104
-119.7	135.8	85.03
69.17	-130	135.4
31.51	23.79	-196.1
-55.55	183.9	-55.63
-48.38	-58	185.2
-126.3	-53	-145.8
-125.8	-109.1	-110.9
127.8	-139.7	64.34
150.1	-22.64	130.2
-112.7	125.4	-107.6
70.91	147.5	-115
-15.31	108.9	-167
-60.56	-137.8	131.7
109.8	23.25	165.5
-125.5	110.3	-109.9
-178.8	-89.02	10.09
-111.7	-146.3	78.13
-37.16	-165.2	106.5
-118.5	-132.1	-92.22
125.4	-69.24	139.6
-90.89	129.2	122.6
-177.7	-56.59	72.17
66.91	149.3	115.1
-33.81	-35.82	-193.8
-135	-4.343	-147.5
-189	0.6746	-65.36
125.7	131.7	82.73
-30.52	-118.4	158.3
-123.9	-62.32	144.1
-63.28	-94.25	-164.7
-65.96	-18.27	-187.9
-114.1	163	20.77
178.7	-37.59	-81.53
38.56	156.4	118.5
120.3	-141.4	-74.43
-167.5	-45.18	99.46
-26.66	-185.8	69.09
-130.9	49.87	142.7
-152.2	92.84	-90.68
148.5	-133.9	-4.409
-148.4	5.373	134
-143.3	111	84.44
64.58	89.29	-166.9
134.8	-65.49	-132.5
86.67	-126.5	-128.4
-161.5	-117.9	-0.7071
163.2	59.75	99.02
-42.43	163.7	-106.8
-80.88	109	-146.9
-4.42	116.9	-162.2
163.4	53.62	102
168.3	98.15	45.27
118	-80.78	-139.8
178.4	-82.06	38.14
128.8	-136.6	68.93
-138.7	-102.9	100.8
0.59	199.7	-11.01
-149.2	-61.9	-117.9
3.342	66.57	-188.6
62.93	-165.5	93.03
145.7	-126.6	-52.54
69.18	-137.4	-127.8
-113.5	164.4	-9.786
70.35	42.96	182.2
-114	-16.57	163.5
135	-13.55	-146.9
72.58	127.3	-136.1
-115.9	-154	-53.49
-2.448	66.17	-188.7
16.63	-114.3	-163.3
-127.3	-135.9	-72.92
33.97	193.1	-39.62
77.02	-108.9	-149.1
-120.7	135.2	84.48
137.5	-117.4	-85.51
129	145.7	46.28
175.3	87.19	40.77
133.9	130.1	71.81
-169.8	-33.85	-100.1
-30.38	-181.1	79.2
45.75	-105.7	163.5
142.1	93.56	105.1
-59.15	-9.915	-190.8
12.68	57.45	191.2
-88.18	51.06	-172.1
-16.56	24.85	-197.8
-163.5	19.98	113.5
133.3	24.99	147
-3.309	166.8	-110.3
159.3	-63.42	-103
56.64	191	-17.65
22.65	171.6	-100.2
-62.62	-127.7	140.6
-9.865	186.6	-71.4
-15.02	-130.2	-151.1
-4.528	98.64	173.9
11.82	75.5	-184.8
-143	-82.25	113.1
-153.6	125.2	26.99
-83.67	104.3	148.8
-1.589	-40.7	195.8
127.3	133.7	77.03
-105.2	-47.45	-163.3
132.4	103.4	108.5
-63.56	-74.19	174.5
-88.77	179.2	-2.219
147.3	-59.48	-121.6
-192.7	51.65	13.47
147.5	116.9	-67.75
-74.35	151.6	-107.2
-181.3	-43.37	72.36
-188.8	-50.61	42.35
116.5	33.87	159
154.9	21.03	124.8
91.13	129.1	-122.5
82.1	-93.96	156.3
-110.9	-136.8	-94.85
-49.39	-117.4	154.2
140	141.8	17.75
-106.3	-169.2	-9.339
3.362	-45.49	194.7
-175.3	-13.38	-95.37
90.79	-75.46	161.4
110.9	-164	-28.43
5.984	190.1	-61.91
106.1	159.8	56.68
32.01	173.9	93.4
117.3	-60.48	150.3
92.47	-107.1	141.3
-87.09	16.84	-179.3
102.1	-171.4	-14.3
63.44	-113.8	151.7
142.6	118.5	-75.02
193.8	46.06	-18.01
-80.48	-182	-20.02
74.83	113.6	-146.6
-105.5	-68.79	-155.4
165.7	-110.2	-19.6
138	133.7	55.66
112.8	-119.7	-113.8
109.3	149.3	-75.93
-153.9	117.6	-50
-156.2	75.91	-99.23
-6.1	0.5913	199.9
123.7	89.26	-129.3
-62.35	-5.895	189.9
36.9	101.4	-168.4
113.1	118.4	-114.8
-145.5	59.58	-123.6
186.9	-42.32	-57.1
-173.7	-86.22	-48.86
-76.7	28.19	-182.5
112.3	150	69.84
-145.7	-67.51	-119.2
135.4	-68.28	130.5
-189.2	63.28	-13.9
120.3	-103	-122.2
110.2	123	112.8
-120.9	-157.6	23.54
-30.88	130.2	148.6
99.77	153.2	-81.06
-125.7	-91.66	125.7
-103.6	164.3	47.6
94.54	-123.9	125.3
132.9	-123.5	-84.16
126.3	-119.3	99.09
-29.61	134.3	-145.2
44.25	102.4	-166
11.75	161.8	-117
-136.7	-44.17	-139.1
-120	-94.45	-129.1
-109.7	-107.1	-128.5
-171.4	14.23	-102.1
169.1	-75.63	-75.38
163.2	-101.7	-54.96
182.1	-82.48	-5.562
151.4	108.2	-73.19
141.1	-57.36	-129.6
129.2	103.1	-112.6
-126.2	154.7	-11.63
-104.1	-163.9	48.1
-89	-44.94	173.4
166.3	111	3.625
136.1	-55.54	135.6
-96.72	-140.8	-104
60.29	-190.7	1.833
-127.3	121	-95.69
-13.37	195	42.2
84.7	171.6	-58.13
98.83	165.3	-54.07
-117.6	-159.8	-25.3
129.3	-80.31	129.7
113.8	152.5	-61.46
-115.1	125.3	105.1
-107.9	141.2	91.82
-75.06	54.52	177.2
149.9	100.2	86.61
-166.4	-110.1	-14.19
55.71	138.7	-132.8
-136.9	10.71	-145.4
-23.74	87.83	-178.1
192.2	5.811	-55.01
99.74	-116	-128.8
-137.2	20.71	-144
81	75.79	166.4
14.85	-196.1	36.4
-48.51	178.1	-77.08
-127	154.1	11.6
56.23	133.1	-138.3
95.34	73.93	159.5
114.6	-157.5	45.39
97.95	-138.2	-106.4
-155.7	112.3	-55.95
4.617	81.31	182.7
17.96	-55.87	191.2
-3.532	175.5	95.88
-176.6	-57.04	74.45
-103.4	-44.67	165.3
125.3	-145.1	-56.95
-70.58	83.69	167.4
-126	6.166	-155.2
120.6	-53.53	-150.3
157	41.97	116.5
-83.76	-181.3	11.25
-74.07	54.11	177.7
131.2	-96.44	116.1
118.1	-134.7	-88.97
-42.45	66.34	183.8
-164.6	8.091	113.3
-47.05	194.3	5.327
-24.08	-143.1	-137.6
23.81	186.8	-67.26
57.85	78.06	-174.8
-8.596	-153.8	-127.5
170.6	-49.96	91.71
147.4	-46.3	127
118.6	-112.4	-115.4
-163.4	31.13	111.1
162.8	60.37	-99.26
69.44	-121.3	-143
-97.31	5.453	-174.6
-78.37	-147.1	110.5
111.9	160.2	42.44
85.9	-170.7	59.13
90.24	-99.42	148.2
24.43	-174.7	-94.19
-23.16	-196.1	-32.04
19.47	-84.1	180.4
-128	-131.2	79.87
-13.64	175.6	94.81
-5.647	-156.4	-124.5
22.67	-30.14	-196.4
-47.3	-122.9	-150.5
146.3	98.94	-93.91
40.98	123	-152.3
-9.748	-195.6	40.64
177	33.99	86.73
-86.86	-122.9	131.7
-124.6	-60.76	-144.2
119.8	105.4	-120.6
87.23	-139.1	-114.2
129.4	110.1	105.5
-93.87	-102.2	144
-94.97	-153.9	85.43
-10	96.41	-174.9
141.2	-136.6	-37.47
-1.842	132.5	149.8
-105	-110.8	-129.2
-183.1	-71.99	-36.01
-113.3	-124.9	-107.5
-85.29	179.1	25.29
128.4	129.5	-82.15
6.517	197.7	29.2
-23.58	-179.3	85.49
-154.2	72.15	-105
-56.99	90.79	-168.8
115.6	-145.7	-73.67
136.1	-138.5	-47.72
146.1	-101.1	91.84
-98.46	-10.56	173.8
-0.03993	165.6	112.2
-196.7	10.44	-34.39
-32.92	-185.2	-67.98
200	-2.744	-2.701
66.42	81.81	-170
140.7	-123.7	69.84
-68.08	164.5	91.12
28.34	101.9	169.7
167.3	46.65	-99.12
80.64	164.4	80.35
143.7	-135.9	29.56
-69.8	-23.86	-185.9
82.75	119.1	-137.7
-154.2	124.1	28.47
56.08	-17.53	-191.2
161.7	-76.72	-89.19
-58.44	156.4	-110.1
-117.2	-85.91	-137.4
-135.9	-99.76	107.6
-50.31	180.7	69.3
-140.4	16.73	-141.4
47.6	194.2	5.063
120.7	112.9	-112.7
105.5	99.36	-137.9
-114.8	-124.4	106.5
15.33	-152.5	-128.5
166.3	-27.53	107.7
-82.31	47.91	-175.9
-39.68	159.6	-113.8
-114	-132.1	-97.78
135.8	-99.71	107.8
154	111.7	61.72
-48.68	-39.95	-189.8
97.06	-96.05	-146.1
-184.5	-6.04	-77.07
77.49	-170.1	-71.18
98.21	155.6	78.42
48.8	-167.1	-98.46
58.2	86.74	-170.6
138.9	126.6	-68.55
-156.6	124.2	7.625
174.7	75.46	-61.47
59.97	-145.5	123.5
111.4	116.7	118.2
136.6	145.7	-10.79
-146.6	136	-1.604
178.7	11.82	-89.08
-73.94	-165.4	84.75
119.5	144.5	-69.66
155.2	65.76	-107.6
-121.2	88.25	-132.4
55.7	138.7	132.9
145.6	-30.13	133.7
101.4	-60.13	161.6
92.19	-73.48	161.6
-184.5	57.09	51.88
64.41	-118.4	-147.8
-148.1	-5.466	-134.3
114.4	-111.7	120.2
-94.07	176.5	0.2651
19.77	-182.1	-80.31
43.11	63.84	-184.6
-166	107	-31.52
-107.7	-76.7	150.1
-107.1	-135.1	-101.3
-157.3	-89.85	84.69
36.2	133.4	144.6
80.16	-180.6	-30.71
136.7	143.4	27.17
116.4	-162.1	13.38
-151.6	122.7	44.27
28.73	-114.5	-161.5
60.84	85.86	170.1
-120.3	122.5	-102.5
123.1	-129.1	-90.39
-140.7	-139.6	-27.13
157.9	88.99	-84.5
167.8	-65.54	-86.81
-134.7	-101	-108
96.11	-172.2	-33.32
-81.8	-92.66	-157.2
149.1	128.6	-34.91
-137.1	-22.84	-143.8
127.5	5.644	154
-140.7	-20.38	-140.7
-113.4	6.035	-164.7
84.98	-75.49	164.6
144.2	-111.6	-82.15
-126.5	-154.8	-7.061
47.82	-194.1	5.202
-169.7	-41.7	97.27
-163.2	-107.4	42.81
13.17	-63.61	-189.2
77.4	-180.7	36.78
37.97	-71.47	182.9
186.7	71.64	-0.6684
111.3	-101.7	131.4
43.89	-100.1	167.5
167.5	32.7	-104.3
-83.71	-168.7	-67.42
130.3	-120	92.86
46.58	-72.93	180.3
-118.7	144.9	-70.09
-181.3	-47.33	69.93
90.51	-134.4	117.2
165.9	109.8	-20.63
-145.2	-5.478	137.5
-106.5	-115.5	123.7
-128	153.5	-7.056
-72.75	-150.3	110
97.25	-128.4	118.6
7.499	118	-161.3
4.187	-147.2	135.4
161.1	-108.8	-46.98
-24.67	-196.2	-29.69
-55.78	135.9	-135.7
131.5	-141.3	52.33
2.937	-123.9	157
-73.39	-63.8	174.8
110.5	91.98	139
23.33	52.34	-191.6
-44.07	-133	142.8
0.154	59.88	190.8
-24.55	-10.04	-198.2
116.3	140.1	-82.7
-84.91	-90.4	-156.9
-32.47	-174	-93.17
-192.1	40.1	38.72
77.14	-131.5	-129.4
-4.853	151.9	130
-42.92	-132.6	-143.5
70.84	183.8	34.58
20.5	-99.09	-172.5
-29.73	168.3	103.8
117.1	129.8	97.12
108.5	125.7	111.6
140.3	-42.25	136.1
-178.1	-75.61	50.62
148.9	-129.7	31.93
181.1	84.33	-8.573
75.17	-115	145.4
-131.7	112.2	100.4
88.77	-70.07	-165
136.7	88.03	116.5
131.9	-150.2	-6.713
-155.5	-119.9	-38.18
-149.8	-87.97	99.02
-162.9	6.895	-115.8
108.2	-114.6	-123.1
-101.9	-81.76	-151.4
59.44	161.9	-101.3
34.84	-116.4	158.8
-63.28	168	-88.11
-25.11	112.2	-163.6
-173.5	-95.96	-26.13
151.3	42.66	123.6
-98.01	54.08	165.7
184.1	78.13	2.108
-123.1	-65.72	143.3
21.42	9.371	-198.6
32.9	-122.8	-154.4
118.9	124.7	-101.4
94.32	-119.8	-129.4
-140.4	30.45	139.2
-126.8	138.2	-69.3
52.84	77.73	176.5
-72.17	185.1	22.76
-68.43	157.4	-102.7
119.3	-158.1	27.83
96.1	36.14	-171.6
135.3	-124.4	-78.82
122.6	116.7	-106.5
-124.5	102.7	-118.1
-58.67	125.6	144.1
-79.66	163.9	82.32
120.9	76.47	-139.7
-8.189	175.3	-95.87
-147.6	-79.33	-109.2
-78	-148.1	-109.4
130.6	113	101
138.2	52.9	134.5
-100.9	60.87	161.6
-74.98	176.7	56.13
59.2	-181.5	-59.62
-95.71	36.55	-171.8
-107.1	-113.3	125.2
21.11	60.18	189.6
114.6	48.21	-156.7
130.9	117.2	-95.58
-105	85.99	146.9
168.2	91.32	58.16
118.8	149.3	-60
125.7	-75.02	-136.2
-41.67	192.9	-32.47
111	-57.13	156.2
-120.3	-9.703	-159.5
-120.8	-148.9	57
151.3	114.1	-63.87
-157.3	90.62	-83.99
-90.75	120.4	-131.4
-123	132.2	85.98
124.4	118.1	102.9
-136	22.5	-145
-61.5	134.5	134.6
101.6	146.4	-90.82
58.29	165.6	95.85
91.22	-143.7	105
-22.62	-192.7	48.47
95.71	-172.3	-33.99
164.6	-102.7	-48.57
-169	-58.81	-89.26
78.55	-113.6	-144.6
2.141	-191.5	57.56
149.8	-4.1	132.5
31.4	-180.1	-81.16
132.5	140.9	-50.88
140.8	135.8	-41.76
-27.85	-197.9	-8.82
-156.8	124.2	2.858
-16.22	172.9	99.26
95.5	105.4	-140.6
-152.8	40.44	-122.6
-144.1	-130.8	-46.19
74.72	86.22	164.3
-95.56	-91.15	-150.2
31.99	-129.6	148.9
173.1	93.25	36.79
-45.13	-168	98.63
169.1	-106.1	12.78
-70.03	162.4	-93.34
-164.5	16.21	-112.6
-143.2	39.26	133.9
-80.83	66.59	170.4
111	-117.1	118.2
4.391	37.44	196.4
27.48	-108.5	165.7
17.99	-165.4	111
-127.5	17.58	153.1
141.7	-23.02	-139.3
-53.8	127	144.8
87.59	178.4	-22.4
118.9	-107.6	-119.5
150.8	-66.13	113.5
75.17	-139	-122.6
-96.95	27.26	172.8
-68.87	-145.6	118.5
-73.39	56.81	177.2
-168.4	107.9	1.63
145.6	30.52	133.6
-101.4	142.9	96.52
-159.1	67.78	100.5
12.88	69.83	187
46.19	-47.15	-188.8
-91.22	-135	-115.9
-86.5	70.71	165.9
-131.4	114.2	98.41
156.6	-124.3	5.375
140.4	-100.9	-100.5
-84.01	-85.72	160
-117.6	-15.99	161
-198.5	20.69	13.01
99.63	-136.1	-107.5
141.5	117.9	78.01
120.2	133.4	88.11
-170.7	-92.89	-47.36
165.4	-82.18	-76.82
113.8	-162.4	25.67
-78.75	142.1	116.6
25.03	-121.8	-156.7
-74.71	-65.14	173.7
-96.34	5.567	-175.2
142.9	-74.3	-118.5
126.6	125	91.44
36.98	156.1	119.5
-37.99	-150.7	-125.9
111.1	160.9	-42.15
-187.6	67.15	17.2
68.48	187.2	-16.21
0.3144	-35.63	196.8
48.38	148.5	-124.9
-128.1	-133.1	76.69
-33.6	-132	146.4
33.92	-133.5	145
-15.18	80.13	182.6
-74.4	-146.9	113.5
-70.16	143.2	120.8
103.8	165.9	-41.15
-148.1	31.67	-130.6
85.06	-154.4	94.45
-47.96	131.3	143
25.35	139.3	141.3
-89.92	-62.61	167.3
-85.11	126	-129.9
-158.5	-52.98	109.9
-168.4	57.73	91.18
126.3	-154.2	16.49
103.4	167.9	-33.45
-109.4	-113.7	122.9
-46.27	104.5	-164.1
-140.8	-110	89.95
143.8	124.7	61.45
78.26	-130.4	129.9
102.6	-93.49	144
166	-32.21	-106.8
25.24	-11.48	198.1
-77.22	-48.86	177.9
115	-149.6	66.26
-75.44	-157.9	96.79
-193.1	-33.66	39.53
-95.91	68.91	161.4
-196.8	-17.25	31.01
122.4	-146.9	58.65
57.33	-154.9	112.8
31.49	169.3	-101.8
157	-39.79	117.4
112.8	84.73	-141.7
115.5	36.13	-159.3
-25.06	169.3	-103.6
-123.2	-127.2	92.93
166.1	17.08	-110.1
-0.8956	56.55	191.8
-132.3	-59.09	-137.8
50.6	144.2	-129
10.39	24.2	198.3
169.2	-54.86	-91.51
25.02	-112.9	-163.2
84.3	174.1	50.78
189.1	-65	2.552
-174.8	30.52	92.26
145.9	-79.27	-111.5
-109.8	116.5	119.9
-132.1	101.6	-110.5
-143.4	10.32	-139
-120.1	-152.1	49.3
-119.4	99.68	-125.8
-67.4	-48.13	-182
-19.43	-145.5	-135.9
-131.5	-150.4	9.249
30.08	-126.5	-152
-87.75	-174.5	-42.98
-10.62	-119	-160.4
-79.78	-74.93	-167.4
-122.5	-138.3	76.55
-28.3	33.64	195.1
-194.3	46.51	-9.171
-91.04	136.4	114.5
-40.33	-24.93	-194.3
29.89	7.998	-197.6
-127.6	-126.8	-87.5
-150.4	-64.37	-115
41.83	195.1	13.15
91.77	-135.6	114.8
137.6	6.724	-145
-49.42	178.2	76.22
150.3	-116.7	-61.58
-22.9	-139	-141.9
-73.03	121.8	140.8
-42.37	-133.3	-143
-10.77	-133.9	-148.1
137.8	34.14	140.9
156.2	-123.3	20.45
-1.677	179.3	88.52
-95.21	88.13	-152.2
1.785	-167.8	-108.8
-96.54	-164.3	-60.63
31.38	-24.01	196.1
121.8	142.4	-69.78
39.16	-180.1	77.77
97.3	91.41	148.9
-199.9	-4.788	4.496
186.9	-18.05	68.87
-31.32	197.4	6.146
-141.4	-82.62	-114.8
-84.48	128.5	-127.8
5.234	177.3	-92.44
165.9	7.927	111.4
-43.91	-172.9	90.35
92.47	124.1	126.7
-98.06	127.1	119.3
-69.95	126.5	-138.3
167.3	92.54	58.73
-16.98	-195.4	38.95
146.4	-83.89	107.4
-184.7	22.7	73.33
-46.5	-186.8	54.26
47.77	144.1	-130.2
-136.6	-143.8	-26.04
148.3	-124	-51.27
112	-1.652	-165.7
-5.497	137.9	144.7
135.1	146.4	17.74
-103.5	-162.2	54.42
105.6	-127.7	112
116.7	-148.1	-66.67
-149.5	126.3	-41.27
171.6	-82.9	-60.59
-172.9	59.59	81
38.35	51.96	189.3
178.8	-37.3	-81.46
123.3	116.2	-106.4
134.9	21.05	146.1
-81.13	108.9	146.9
124.4	39.43	151.6
130.8	-92.84	-119.5
-124	47.55	149.5
63.97	48.13	-183.3
152.2	58.09	116
89.98	-172.4	-46.89
-17.64	-143.4	138.3
95.9	-152.5	86.85
142.4	117.9	-76.3
61.45	-129.4	-139.6
31.62	-180.9	79.15
28.98	100.6	-170.4
118.9	151.3	54.57
138.9	21.73	-142.2
149.5	-4.105	132.8
99.83	-125.2	-119.9
-153.5	46.06	-119.7
-180.6	-62.12	-59.46
124	-97.77	-122.7
-128.4	139.7	-63.21
-174.5	11.82	-97.02
113.7	-116.2	-116.4
108.4	116.5	-121.1
62.14	177.5	68.04
110.4	57.85	-156.4
113	-21.53	-163.6
146.5	76.61	112.6
-124	88.09	-129.9
-0.3308	96.77	-175
121.9	105.9	-118.1
142.9	99.87	98.03
-70.17	87.58	165.5
-40.28	69.77	183.1
-31.58	-188.5	58.78
-131.6	-133.2	-70.4
-157.5	92.84	81.08
-166.7	73	-82.95
-144.2	77.04	-115.2
-135.7	-114	92.8
28.04	190.7	-53.38
120.7	133.1	-87.79
75.3	-93.99	159.7
131.2	122.7	87.92
15.91	-155.5	124.8
-117.9	-117.9	110.4
-78.06	-175.9	54.55
-158	4.375	-122.6
-9.598	33.87	196.9
56.63	112.9	-155
-63.82	-74.4	-174.3
72.64	-97.96	158.5
134.2	122.9	-82.99
147.4	24.72	132.9
4.027	-128.4	153.3
-64.93	-102.6	-158.9
-165.9	60.61	-93.84
113.3	85.87	140.7
160.3	-114.3	-35.04
122.9	106.1	-116.8
-163.5	-115	-7.826
-141.5	128.6	58.64
-156.3	120.8	31.29
-87.62	101.6	-148.3
-139.8	-104	-98.24
-195.1	44.13	0.8641
-102	98.19	-141.3
27.09	20.03	197.1
-48.55	-8.45	-193.8
123.9	-72.2	139.4
132.7	-46.64	142.1
-47.93	-38.76	190.3
-184.1	1.422	78.16
96.35	168.3	-48.99
110.6	157.2	55.31
-130	-129.2	-80.03
33.79	-69.95	-184.3
99.56	172.1	21.32
10.14	-97.21	-174.5
11.85	-192	-54.78
-60.64	173	80.06
-87.85	-64.24	-167.8
-183.3	-28.46	74.75
130.3	-149.9	-24
-97.93	170.1	-38.31
131.1	-151	-2.891
-145	50.21	128.2
-162.7	-84.2	80.15
73.36	123.7	139
95.95	-47.3	169
-138.1	77.52	122.1
97.42	-149.4	-90.52
156.6	-109.3	59.5
28.15	-169.8	101.9
-166.5	-78.67	78.13
-39.32	-153	122.7
178.4	-72.56	-53.9
145	-0.1311	137.8
-75.82	-181.4	36.73
-66.86	133.2	133.3
-106.9	-158.5	58.79
-150.2	112.3	69.42
-85.96	102.2	148.8
138.2	-46	137.1
111.5	-65.08	-152.7
-34.94	182.4	-74.32
-142.7	95.18	102.8
50.49	-56.09	-185.2
-117.3	157	-40.03
120.7	-152.6	-46.56
147.6	-125.8	-48.82
-27.56	-120.2	-157.4
-114	24.55	-162.5
-192.4	2.546	-54.43
160.1	-88.83	80.58
-173.3	96.95	23.99
35.68	161	-113.1
-155.7	-41.05	118.6
10.43	194.6	-45.1
197.5	30.65	7.796
-105.2	-80.62	149.8
75.72	109.4	-149.3
135.6	139.8	45.34
128.4	-123.1	-91.37
-57.25	-185.7	-47.41
-120.2	-80.29	-138.2
54.74	116.9	152.8
138.8	-135.9	-47.85
21.14	60.34	-189.5
188.5	25.71	61.64
3.202	121.7	-158.7
-108.8	43.66	162
-82.71	27.01	180.1
-164.5	8.033	113.4
-103.7	122.7	119.1
19	155.5	-124.3
47.28	60.19	184.8
12.47	13.37	-199.2
130.2	-140.3	58.07
139.2	-123.4	-73.55
70.63	37.38	-183.3
71.98	163	90.79
-10.6	-145.6	-136.7
-105.3	-115.9	124.4
-184.2	-34.17	70.05
136.6	140.3	40.53
-173.5	39.81	-91.23
-141.7	-108.8	89.91
-116.6	-126.8	101.6
65.26	-139.2	127.9
190	61.07	13.22
-177.3	-81.02	-44.84
135.3	135.3	58.19
-125.1	-118.2	101.9
125.1	-133.8	-80.27
-18.99	-171.2	-101.6
-129.1	-89.25	124
-41.69	-92.92	-172.1
-102.4	-69.35	-157.2
-106.7	-120.6	-118.6
-132.2	140.8	51.89
20.24	-126.9	153.3
138.7	114.8	87.06
31.63	151.1	127.1
-13.81	87.41	-179.4
100.7	-117.1	-127
-177.2	-81.95	-43.44
179.6	71.58	51.34
125.2	103	117.2
120.4	113.5	112.4
-122.4	116.6	107
72.15	16.06	-185.8
81.1	1.435	182.8
-11.03	-155.3	125.6
-180.5	57.14	64.59
-86.43	-104.3	147.1
7.184	-54.37	-192.3
162.4	-76.58	88.17
24.04	-187.5	65.19
-37.01	-195.5	20.48
-76.12	-184.9	3.055
-55.96	128.1	-143
-167	96.29	53.43
-93.46	-168.5	53.65
-157.3	-43.51	-115.6
106	169.3	10.82
-41.71	-105.3	164.9
-22.04	-148	-132.7
-171.2	99.66	-27.53
108.3	-152.3	71.28
-95.81	11.2	175.2
107.1	128.1	110.1
143.6	-130.5	-48.45
-168.4	-72.99	-79.5
-163.7	12.3	114.2
-130.7	-148.1	31.33
116	42.05	157.4
36.15	-136.9	141.2
136.4	-126.4	73.65
-77.78	152.9	102.9
164.3	-95.53	-62.16
100.5	-142.6	-97.83
60.17	181.3	-59.16
-153.8	-75.72	103.1
-33.64	-166.6	-105.4
-195.2	4.598	43.19
123.8	-90.55	-128.4
66.68	139.1	-127.3
114.2	134.4	-94.37
-68.7	176.1	-65.27
-136.5	142.9	30.95
-22.79	171.4	100.5
135.1	-147.4	-4.45
-168.2	-57.44	91.63
110	90.42	-140.4
-109.9	-166.2	17.34
92.36	149	96.34
181.7	50.93	66.27
-165.8	-90.06	-66.22
-44.41	74.99	-180
111.8	92.2	-137.8
-56.73	-121.8	148.2
142.8	106.2	-91.32
-11.65	199	16.42
-132.1	124.7	-83.64
-85.63	177.9	-31.78
146.3	117.8	-68.55
38.52	62.36	186.1
-117.9	105.4	-122.4
31.32	-139.4	140
121.5	157.5	20.32
-167.9	-63.08	88.56
168	-93.49	54.99
-170.1	105.1	4.743
32.55	-178.5	-84.09
155.4	-83.81	-94.02
-49.56	-123.9	148.9
123.7	120.2	101.3
66.08	182	-50.04
198	0.2086	28.36
164.4	-113.7	6.191
-107	-69.65	154
-139.8	-84.41	-115.4
66.06	-92.89	164.3
-104.2	116.5	124.8
-28.79	130.2	-149.1
75.06	-155.3	-101.2
63.34	110.1	154.5
-82.87	-16.56	181.3
147.7	-98.23	-92.4
-86.35	-161.2	81.09
104.5	-55.91	-161.1
78.66	-86.53	-162.2
86.39	-178.4	26.71
71.41	-182.5	-40.06
4.566	96.49	-175.1
123.3	-117.4	-104.9
117.4	-133.1	-92.14
175.5	-73.77	61.35
67.04	-126.4	139.7
-129.9	-53.89	-142.2
123.5	-153.2	-35.85
144	81.42	112.4
-137.7	-26.89	142.6
70.29	-133.8	-131
-166.9	27.93	106.5
-36.18	-99.45	-169.7
81.87	-110	-145.6
130.4	-148.1	-32.51
31.98	194.9	-31.34
12.12	155.2	125.5
39.01	76.68	180.5
193.5	20.26	46.36
101.7	76.76	-154.2
64.26	-19.07	-188.4
136.4	95.67	110.6
-32.82	-151.5	126.4
-22.44	107	-167.5
-3.896	86.57	-180.3
135.1	-88.42	118
-83.07	147.5	106.6
-177.3	-67.43	-63.45
-143.7	-44.27	131.8
77.9	-170.3	70.3
79.91	107.7	-148.4
159.4	-9.907	120.4
-12.17	161.7	117.1
-119.2	-151.3	53.77
-47.57	155.5	-116.5
-18.39	198.7	13.85
-67.21	-170.9	-79.25
-161.2	-107.3	50.16
-38.65	-97.18	-170.5
-69.86	139.5	-125.1
140.8	28.68	139.1
-193.4	-40.28	-31.15
114.2	146.6	-73.93
46.93	-174.8	85.14
-184.2	71.58	-31.05
-36.7	-141.4	-136.6
157.5	-21.2	-121.4
-179.4	-22.65	-85.54
140.3	139.1	31.14
145.6	-136.1	-17.13
-125.5	-101.1	-118.4
163.8	-113.8	-14.74
-39.71	185.1	-64.52
185.7	34.62	65.71
-88.13	93.57	-153.2
103.7	-159.9	-60.62
117.3	140.4	80.82
-143.8	-106.6	-89.21
-16.66	-148.4	-133
-140.5	122.9	-71.88
-6.395	192	-55.6
17.22	198	22.74
186	-73.33	5.599
-49.96	-142.6	-131
165.8	-61.49	93.42
-124	-122	98.72
-15.1	-168.2	107.1
-77.23	-111.5	147
-5.343	32.93	-197.2
35.72	44.13	191.8
103.8	-123.9	117.8
-132.1	58.6	138.2
107.2	48.09	-161.9
-70.18	142.1	-122
-85.74	179.8	-17.47
-135.3	144.6	27.99
185.6	-36.26	65.18
91.78	99.02	147.6
73.16	-166.8	-82.56
71.79	90.96	163
58.11	34.24	-188.3
21.24	178	88.62
-114.6	45.97	-157.3
-29.38	153.3	-125.1
18.2	-119.1	-159.6
-135.1	-72.94	-128.2
51.26	-192.7	-14.99
-102.9	100.2	-139.2
182.1	-33.89	-75.38
-57.08	-125.8	-144.7
-132.4	133.3	68.6
-139.1	-136.9	-43.78
128.9	34.6	148.9
-93.39	-140.5	107.4
-33.11	39.87	-193.2
