-12.17	319.3	-51.23	
-8.32799	318.5	-51.19	
-13.85	316.3	-53.13	
-13	314.6	-48.99	
-15.55	310.8	-49.91	
-9.46999	313.4	-49.46	
-10.15	309.9	-46.49	
-12.62	308.1	-49.31	
-6.53299	309.4	-47.27	
-7.73399	304.9	-47.95	
-10.21	304.6	-52.19	
-4.29799	303.7	-49.11	
-5.95899	299.6	-50.56	
-7.98499	301.5	-54.47	
-2.43499	298.6	-51.63	
-4.38199	297.1	-55.53	
-5.70599	300.9	-58.31	
-1.14499	295.8	-57.16	
-2.79799	295.8	-61.38	
-3.33299	300.7	-61.87	
-2.50199	292.9	-62.73	
1.72901	291.2	-63.16	
1.64401	290.8	-58.97	
-0.0348322	289.8	-65.7	
1.14501	285.5	-66.98	
5.40201	282.7	-65.95	
-0.726292	286.5	-69.97	
-4.53599	284.4	-68.9	
-3.14699	281	-65.91	
-5.35799	287.4	-66.61	
-7.66699	285	-63.69	
-4.18399	282.3	-61.68	
-7.66099	288.3	-61.9	
-7.77499	286.4	-57.87	
-3.34699	284.2	-57.95	
-7.30999	289.9	-56.33	
-3.52399	288.1	-54.02	
-0.717992	286.9	-57.09	
-1.96699	291.2	-52.11	
2.01301	288.9	-51.31	
4.68401	287.8	-55.34	
3.46401	292.1	-49.66	
7.31301	290.9	-51.92	
5.93601	291.6	-56.71	
9.03401	293.2	-49.49	
9.13101	296.6	-52.01	
5.00401	296.3	-53.28	
12.3	298.7	-51.26	
10.7	300.6	-47.35	
7.65101	297.5	-47.01	
13.45	302.7	-46.7	
15.14	298.8	-47.83	
12.36	297.2	-44.79	
16.95	299.5	-50.45	
17.07	297.2	-53.84	
18.44	300.7	-57.06	
15.68	293.7	-54.51	
18.48	292	-57.8	
22.6	294.8	-57.14	
16.93	291.1	-60.93	
16.63	287.3	-58.18	
16.84	287.5	-53.53	
14.47	284.3	-59.06	
10.73	284.7	-59.9	
9.32201	288	-63.37	
9.31601	281.4	-60.13	
7.97101	281.5	-55.82	
4.30201	284.7	-56.47	
6.37301	278.1	-56.06	
3.08001	279.6	-53.32	
1.64401	282.2	-56.39	
2.00901	275.9	-53.61	
-2.24199	277.3	-53.96	
-1.30499	279.7	-57.4	
-3.34299	273.7	-54.82	
-5.43799	275.8	-58.67	
-2.46699	278.1	-61.01	
-6.55899	272.7	-60.84	
-7.06699	275.5	-64.47	
-2.47899	276.9	-65.49	
-8.05499	272.2	-66.22	
-5.39299	273.8	-69.65	
-1.84599	273.9	-67.22	
-6.46699	270.6	-71.07	
-2.27299	270.1	-72.92	
-0.562493	270.7	-69.08	
-3.22799	266.6	-73.26	
1.27101	265.5	-72.89	
1.84201	266.5	-68.18	
-0.158693	262	-73.1	
3.31201	261.1	-70.07	
1.88701	263.1	-65.83	
2.26201	257.4	-69.65	
3.63901	257.7	-65.37	
0.386407	260.4	-62.71	
2.56701	254.1	-65.76	
0.787807	254.8	-61.61	
-2.16199	257.8	-61.94	
-0.0723933	251.2	-60.54	
-4.41599	252.4	-59.55	
-5.38799	255.1	-62.65	
-5.50499	248.8	-59.72	
-9.21699	250.1	-62.01	
-10.79	251.7	-58.47	
-7.15899	252.5	-64.1	
-10.78	255.3	-63.01	
-10.34	255.9	-58.18	
-8.96599	258.2	-64.72	
-11.34	260.9	-61.91	
-9.01399	259.3	-58.63	
-9.76099	263.8	-63.65	
-11.53	266.6	-60.42	
-16.09	264.5	-59.35	
-8.62899	267.8	-58.36	
-7.76399	265.1	-55.77	
-6.55599	261.6	-58.83	
-4.76699	267.6	-55.6	
-1.94499	264.2	-54.96	
-2.58199	262.7	-58.94	
0.473207	266.9	-54.57	
3.36801	264.1	-56.83	
0.922707	264	-60.34	
5.56301	267.1	-56.78	
7.48301	265.5	-60.7	
3.90301	265.8	-62.82	
9.17601	268.9	-60.76	
8.97701	268.5	-65.35	
4.17201	269.1	-66.45	
10.59	272	-65.64	
8.17301	272.4	-69.59	
3.70901	272.9	-67.67	
9.81201	275.8	-69.92	
6.26401	276.9	-72.67	
3.08301	276.7	-68.92	
8.19501	279.9	-73.53	
4.37601	281.9	-71.88	
4.23001	279.6	-67.37	
6.12901	285.2	-72.31	
4.88001	287.9	-69.37	
6.56901	286	-65.12	
4.91801	291.1	-71.11	
8.53801	293.4	-70.27	
7.47401	295.5	-74.01	
8.47501	294.1	-66.62	
5.26401	295	-64.74	
7.68201	292.2	-62.32	
2.56701	297.4	-63.53	
0.256908	298	-66.89	
-0.450392	302.2	-64.77	
3.44601	298.3	-69.1	
2.16701	302.3	-70.56	
2.58701	303.6	-66.51	
5.36001	302.2	-72.67	
5.96301	306.6	-71.76	
5.79201	306.4	-67.49	
9.37201	305.7	-73.11	
10.63	309.3	-70.27	
9.58101	307.6	-65.81	
14.49	308.8	-70.31	
14.97	310.7	-66.14	
13.11	307.4	-62.89	
18.75	309.8	-66.41	
19.08	309.5	-61.95	
16.67	306	-62.13	
22.7	309	-63.06	
22.26	304.9	-61.34	
18.9	303.6	-64.14	
25.9	304.9	-62.37	
25.54	300.8	-64.36	
25.66	299.2	-60.42	
22.37	302.1	-65.85	
20.59	298.2	-64.07	
21.47	298.8	-59.21	
17.21	299.2	-65.42	
14.79	297.9	-62.27	
15.2	301.5	-58.91	
12.27	295.5	-63.58	
8.68201	296.4	-60.84	
9.88801	293.4	-57.29	
9.74801	300	-60.59	
10	299.3	-56.21	
12.54	296	-57.39	
8.24801	301.5	-53.57	
11.55	304.6	-54.01	
12.58	303.8	-58.13	
8.54201	306.8	-53.62	
9.98501	310.1	-56.34	
10.34	307.6	-59.76	
6.41201	311.1	-55.75	
6.36501	313.2	-59.83	
7.01201	309.5	-63.01	
2.58501	313.7	-59.59	
2.12401	313.9	-63.97	
3.15401	309.3	-65.37	
-1.51499	313.8	-62.86	
-1.95899	311.4	-66.84	
-0.271892	308.1	-64.91	
-5.67099	311.4	-66.27	
-6.17199	307.4	-68.48	
-3.92599	305.7	-65.45	
-9.80799	307.4	-67.3	
-9.30299	302.9	-66.61	
-6.78599	303.6	-63.3	
-12.99	302.7	-65.6	
-12.08	299.4	-62.66	
-9.53799	301.8	-60.22	
-15.61	300.2	-61.62	
-14.5	298.5	-57.45	
-11.87	301.8	-56.88	
-17.23	300.2	-55.58	
-15.93	298.9	-51.65	
-13.75	303.1	-51.63	
-19.52	299.8	-50.95	
-17.87	302.3	-47.32	
-16.64	305.3	-49.99	
-21.45	302.7	-45.99	
-20.35	307.1	-46.59	
-19.85	306.9	-51.44	
-23.8	308.4	-45.47	
-23.55	310.8	-49.35	
-23.48	307.1	-52.52	
-27.16	311.9	-48.63	
-27.51	311.1	-53.19	
-27.25	307.1	-52.18	
-31.09	312.5	-53.36	
-32.45	309.1	-56.05	
-31.14	305.6	-53.74	
-35.86	310.6	-55.28	
-37.61	306.6	-54.91	
-34.91	303.8	-51.81	
-47.46	303.7	59.58	
-47.42	305.8	56.29	
-48.83	300.2	58.62	
-44.5	300.1	57.17	
-44.75	295.5	56.36	
-44.88	301.5	53.74	
-41.39	299	52.11	
-43.82	295.6	52.41	
-42.2	301	49.09	
-42.13	296.9	46.8	
-46.19	294.4	48.02	
-43.19	298.2	43.39	
-43.95	294	41.72	
-48.04	293.4	44.1	
-44.96	295.6	38.38	
-48.5	292.6	38.38	
-51.8	294.1	41.73	
-50.02	293.7	35.04	
-54.13	292	35.86	
-55.36	295.1	39.56	
-55.04	290	33.6	
-55.31	291.6	29.28	
-51.12	291.8	29.45	
-57.56	289.1	29.42	
-58.19	286.6	25.5	
-56.88	287.7	20.6	
-61.25	285.7	27.32	
-59.75	281.7	28.72	
-56.3	280.6	25.6	
-57.93	283.6	31.57	
-54.59	280.7	31.82	
-52.3	281.4	27.62	
-53.34	283.3	34.25	
-49.06	282.4	33.35	
-48.94	283.8	28.64	
-48.1	285.4	35.53	
-45.66	287	31.79	
-48.59	287.7	28.67	
-44.3	290.6	32.93	
-43.27	291.7	28.51	
-47.16	292.3	25.48	
-42.18	295.2	29.78	
-44.34	296.7	25.99	
-49.13	295.6	27.05	
-42.35	299.9	26.52	
-45.37	302.1	28.58	
-46.45	298.8	31.27	
-45.06	305.8	27.77	
-41.43	306.6	30.55	
-40.53	302.3	30.68	
-41.2	310.1	30.04	
-41.78	308.3	26.11	
-38.43	305.7	27.25	
-44.51	309.7	25	
-47.52	307.7	23.09	
-51.28	310.7	24.2	
-47.59	304.2	21.63	
-50.67	304.4	18.17	
-50.57	309.4	17.14	
-53.56	302.3	18.38	
-50.24	299.7	16.23	
-45.7	300.7	16.64	
-50.59	296	15.67	
-51.38	293.7	18.64	
-55.27	294.6	21.61	
-51.04	290.2	17.33	
-46.76	290	18.74	
-47.79	289.7	23.56	
-46.42	286.4	17.55	
-43.85	285.6	21.21	
-47.24	286	23.78	
-43.53	282.2	19.47	
-43.97	280.2	23.48	
-47.77	282.1	24.14	
-44.23	276.8	21.75	
-48.28	276.3	24.32	
-51.04	279.7	23.54	
-49.91	273	22.84	
-53.91	274.2	24.81	
-55.27	278.2	22.35	
-55.11	271	23.15	
-58.82	273.5	22.04	
-56.54	276.3	19.69	
-59.7	270.3	20.51	
-61.58	272.6	16.97	
-57.93	274.6	16.43	
-61.33	269.3	15.19	
-60.94	271.7	11.24	
-56.45	273.4	11.9	
-60.56	268.2	9.88001	
-57.54	270.4	7.00601	
-53.61	271.4	9.75301	
-56.52	267	5.26901	
-52.38	268.8	4.83901	
-50.07	268.8	9.27701	
-52.17	265.4	3.10101	
-48.13	265.2	5.22701	
-48.83	265.3	9.38501	
-46.49	262.2	3.44701	
-45.56	260.2	7.53301	
-49.01	261	9.80301	
-45.14	256.9	5.82701	
-47.49	254.9	9.21601	
-44.19	255.5	11.75	
-50	257.8	9.23001	
-49.24	257.5	13.85	
-44.58	258.8	14.37	
-51.43	260.5	14.33	
-49	261.2	18.17	
-45.59	262.1	15.67	
-51.22	264.1	18.85	
-48.41	265.3	22.31	
-46.89	260.9	24.32	
-46.65	268.5	21.24	
-43.69	267.4	18.94	
-46.21	265.4	15.44	
-44	271.3	18.48	
-42.93	270.9	14.18	
-46.6	268.9	13.27	
-43.04	274.6	14.34	
-44.92	274.3	10.11	
-48.3	272	11.51	
-45.41	277.9	10.58	
-49.09	277.6	7.77401	
-51.12	275.1	10.41	
-49.72	281.1	8.82701	
-54.19	280.1	8.34001	
-55.22	277.1	12.12	
-55.06	283.7	9.50601	
-58.96	281.8	11.26	
-57	279.3	14.94	
-59.86	285.3	12.33	
-62.63	283.3	15.4	
-58.8	281.4	17.88	
-64.01	286.7	16.03	
-62.57	285.7	20.3	
-57.76	284.5	19.2	
-63.56	289.2	21.24	
-61.04	290.6	24.24	
-56.61	291	22.09	
-63.25	292.7	26.24	
-62.89	296.9	25.26	
-66.88	297.2	27.17	
-59.39	297.9	26.08	
-57.58	296.6	29.22	
-54.83	296.6	25.76	
-56.67	296.6	32.89	
-60.01	294.9	34.67	
-58.54	297.7	38.26	
-62.35	297.1	32.44	
-64.36	298.9	35.95	
-60.57	300.6	36.87	
-66.52	300.7	33.36	
-66.33	304.4	36.05	
-62.07	304.7	36.36	
-67.63	305.9	32.87	
-65.4	309.7	34.59	
-60.71	308.4	34.61	
-65.5	312	31.5	
-61.68	314.2	32.75	
-57.9	311	32.13	
-61.93	316.2	29.43	
-57.48	316.8	29.34	
-57.05	312.6	28.65	
-58.62	318.8	26.3	
-56.28	315.8	23.98	
-58.74	312.2	25.26	
-57.39	318.1	21.18	
-58.72	314.7	18.52	
-54.59	314.2	17.65	
-60.3	313.2	21.56	
-57.87	309.5	20.32	
-53.2	311.2	20.55	
-59.26	307.7	23.38	
-55.89	305.5	24.52	
-53.12	308.8	26.94	
-56.72	301.9	24.55	
-54.04	300.4	28	
-50.11	299.6	25.4	
-54.39	303.8	29.72	
-49.97	304	29.46	
-50.7	303.3	25.26	
-47.64	304.7	32.41	
-48.66	309.1	32.11	
-52.64	308.8	30.5	
-48.52	308.7	35.83	
-51.75	311.7	36.8	
-54.76	309.7	34.55	
-51.22	310	40.13	
-55.58	310.9	41.26	
-58.16	308.3	37.98	
-55.3	308.7	44.38	
-59.64	307.9	44.43	
-60.35	305.2	40.45	
-58.42	305.5	47.12	
-61.97	303	45.48	
-59.6	302.1	42.15	
-61.3	300.5	48.23	
-62.84	297	45.66	
-59.65	297.8	43.14	
-61.57	294.7	48.39	
-60.2	291.9	44.98	
-57.13	294.6	43.97	
-59.06	289.4	47.62	
-55.67	288	44.96	
-53.71	291.8	44.93	
-54.66	286.3	48.12	
-50.32	286.4	46.56	
-50.33	290.6	46.91	
-48.65	286	49.85	
-44.61	286.5	48.35	
-45.3	291	49.63	
-43.94	284.8	51.61	
-40.79	288.1	52.4	
-43.94	290.8	53.39	
-39.43	286.1	55.39	
-40.75	290	57.58	
-45.53	289.5	56.69	
-39.74	288.7	61.08	
-43.94	290	62.16	
-46.5	287	59.35	
-43.3	288.4	65.63	
-47.67	287	64.95	
-46.05	284.4	62.07	
-47.94	285.5	68.49	
-50.03	281.8	66.92	
-47.24	280.5	63.76	
-49.39	280.6	70.45	
-48.36	276.6	69.04	
-44.95	276.9	65.42	
65.69	319.4	35.49	
63.72	318.6	32.2	
64.95	316.5	37.94	
68.05	314.7	35.07	
68.61	311	37.77	
65.81	313.4	32.32	
68.71	310	31.39	
67.6	308.2	34.98	
66.15	309.5	28.72	
66.22	304.9	30.14	
63.9	304.7	34.47	
63.44	303.7	27.83	
63.09	299.7	30.04	
60.8	301.5	33.8	
60.34	298.7	27.61	
58.04	297.1	31.32	
56.35	301	33.87	
54.96	295.8	29.43	
52.23	295.8	33.05	
52.07	300.7	33.71	
50.93	293	33.53	
48.36	291.2	30.16	
51.98	290.8	28.05	
47.12	289.8	33.01	
45.43	285.5	32.72	
44.09	282.7	28.58	
43.85	286.6	35.87	
46.76	284.5	38.58	
48.6	281	35.87	
49.13	287.5	38.05	
52.85	285.1	38.51	
52.75	282.3	34.52	
54.36	288.4	37.54	
57.86	286.5	35.55	
55.48	284.2	31.84	
58.91	290	34.31	
58.91	288.2	29.9	
54.83	286.9	29.12	
59.71	291.2	27.54	
58.32	288.8	23.75	
53.49	287.7	23.59	
58.95	292	21.62	
55.02	290.8	19.53	
51.66	291.5	23.2	
56.19	293.1	16.77	
53.97	296.5	17.97	
55.05	296.3	22.15	
52.95	298.5	14.86	
57.11	300.4	14.16	
59	297.4	16.61	
56.22	302.5	11.46	
54.39	298.7	10.65	
58.44	297	11.43	
51.21	299.3	10.46	
48.26	297	12.16	
44.78	300.5	12.64	
48.43	293.5	13.72	
44.16	291.8	13.08	
42.56	294.5	9.19201	
42.32	290.9	16.04	
44.83	287.1	14.9	
48.68	287.3	12.29	
45.22	284.1	17.24	
46.46	284.6	20.85	
44.22	287.9	23.84	
47.01	281.3	22.22	
51.39	281.4	21.11	
52.74	284.6	24.54	
52.03	278	22.63	
56.09	279.5	23.99	
54.21	282.2	26.79	
56.42	275.9	25.09	
58.33	277.3	28.88	
54.9	279.7	29.86	
58.19	273.8	30.31	
56	275.8	34.08	
52.43	278.1	32.75	
54.74	272.8	36.21	
51.91	275.6	38.51	
48.63	276.9	35.12	
50.94	272.3	40.3	
46.62	273.9	39.81	
46.83	273.9	35.51	
45.98	270.7	41.5	
42.21	270.2	38.89	
44.59	270.7	35.43	
42.43	266.6	39.93	
40.4	265.5	35.91	
44.12	266.5	32.95	
40.99	262.1	37.27	
41.75	261.1	32.74	
46.11	263.1	31.71	
42.68	257.4	33.45	
45.61	257.7	30.03	
49.57	260.4	31.39	
45.85	254.1	31.19	
50.31	254.8	30.53	
51.56	257.8	33.19	
51.68	251.2	30.74	
54.8	252.5	33.91	
52.65	255.1	36.34	
55.24	248.8	34.97	
55.22	250.2	39.32	
59.06	251.8	38.79	
52.35	252.6	38.63	
55.16	255.5	41.11	
59.05	256.1	38.21	
52.74	258.3	40.44	
56.38	261	40.96	
57.96	259.4	37.28	
54.05	263.9	40.5	
57.72	266.7	40.28	
61.03	264.7	43.64	
57.96	267.9	36.72	
59.72	265.1	34.66	
56.5	261.7	35.26	
58.29	267.6	31.99	
57.38	264.2	29.29	
54.32	262.7	31.92	
56.43	266.9	26.99	
53.01	264	25.73	
51.29	264	29.66	
51.89	267	23.81	
47.55	265.4	24.24	
47.61	265.8	28.39	
46.59	268.8	22.79	
42.79	268.4	25.37	
44.37	269	30.03	
41.68	271.9	24.11	
39.58	272.4	28.23	
43.55	272.8	31.03	
38.43	275.7	26.97	
37.94	276.8	31.42	
42.79	276.6	32.17	
36.19	279.9	30.19	
39.58	281.9	32.56	
43.51	279.6	30.36	
38.28	285.2	31.26	
41.43	287.9	30.76	
44.18	286	27.12	
39.92	291.1	31.6	
38.73	293.3	28.06	
36.09	295.5	30.9	
41.87	294	26.2	
45.15	295	27.94	
45.96	292.2	24.64	
47.58	297.4	29.58	
45.92	298	33.3	
48.09	302.2	32.75	
42.37	298.3	31.74	
41.78	302.3	33.55	
45.01	303.6	31.06	
38.31	302.1	31.93	
38.75	306.6	30.9	
42.49	306.3	28.81	
35.82	305.7	28.71	
37.58	309.2	26.11	
41.93	307.5	24.69	
35.52	308.7	22.84	
38.82	310.5	20.24	
42.58	307.2	20.16	
36.62	309.6	17.17	
40.25	309.3	14.56	
41.37	305.8	16.75	
37.41	308.8	12.05	
39.13	304.7	11.58	
38.5	303.4	15.92	
36.34	304.6	9.00801	
34.86	300.6	10.4	
38.15	298.9	8.25601	
35.23	301.9	13.87	
37.69	298	14.49	
41.37	298.6	11.2	
38.31	299.1	18.07	
42.26	297.8	18.51	
44.9	301.3	16.36	
42.47	295.4	21.36	
46.68	296.3	22.97	
49.09	293.3	20.12	
46.32	299.9	21.9	
49.93	299.2	19.4	
47.6	295.9	17.88	
53.08	301.4	19.49	
50.97	304.4	16.88	
46.92	303.7	18.16	
52.87	306.7	19.21	
49.79	310	19.37	
46.69	307.5	20.88	
52.15	311	22.1	
48.69	313.1	24.25	
45.65	309.4	25.4	
50.87	313.7	27.34	
47.37	313.8	30.02	
45.66	309.3	29.92	
50.23	313.8	32.54	
47.07	311.4	35.03	
47.85	308.1	32.61	
49.5	311.5	37.89	
47.9	307.5	39.51	
49.31	305.8	36.03	
50.8	307.5	42	
51.14	303	41.26	
52.64	303.7	37.37	
53.93	302.9	43.87	
55.98	299.5	41.59	
56.71	301.9	38.13	
58.7	300.3	44.05	
61.68	298.7	40.94	
60.79	301.9	38.37	
64.7	300.4	42.27	
67.37	299.1	39.12	
66.24	303.2	37.21	
69.85	300	41.81	
72.07	302.4	38.48	
69.14	305.5	38.79	
75.07	302.9	40.83	
73.97	307.3	40.16	
69.57	307.1	42.28	
76.72	308.7	42.5	
73.27	311	44.29	
70.55	307.3	45.93	
75.77	312.2	46.98	
72.07	311.4	49.67	
72.81	307.3	48.97	
73.79	312.8	52.79	
72.22	309.4	55.4	
73.52	305.9	53.11	
74.65	310.9	57.89	
75.9	307	59.22	
77.14	304.1	55.33	
10.85	411	-61.28	
9.88601	409	-64.51	
9.55201	408.9	-58.26	
13.37	406.8	-59.52	
13.27	404.1	-55.69	
12.01	404.5	-62.17	
15.15	401.2	-61.14	
13.14	400.5	-57.56	
13.44	399.6	-64.04	
13.24	395.8	-61.24	
9.83101	396.6	-57.79	
11.24	393.6	-63.62	
10.41	390.5	-60.37	
7.12401	393.1	-58.14	
8.46201	388.4	-62.93	
5.27301	387.8	-59.62	
2.83801	392	-59.01	
2.87601	385.7	-61.69	
-0.74619	386.5	-59.08	
-1.22399	391.3	-60.14	
-2.04699	383.8	-58.03	
-3.53599	380.7	-61.14	
0.53211	380.1	-62.03	
-5.47599	380.2	-58.42	
-6.89999	375.8	-57.68	
-6.96599	371.7	-60.84	
-9.31199	377.6	-55.56	
-7.19999	376.9	-51.68	
-4.58799	373	-52.53	
-4.86199	379.8	-52.56	
-1.35399	378.1	-50.41	
-0.27229	374.3	-53.16	
0.27041	381.1	-52.02	
4.23701	379.1	-52.3	
3.04101	375.5	-55.54	
5.49401	382.1	-54.32	
6.75501	379	-57.74	
3.08301	377.2	-59.07	
8.08701	381.3	-60.7	
7.86601	377.7	-63.71	
3.29701	376	-64.69	
8.96801	380.1	-66.53	
5.80201	377.8	-69.01	
1.53701	379.3	-66.75	
7.61301	379.3	-71.99	
5.06101	382.6	-72.59	
4.95301	383.8	-68.43	
4.87001	383.5	-76.35	
9.01601	385.5	-76.57	
10.24	383.6	-72.86	
8.83901	386.5	-79.93	
7.41201	382.4	-79.86	
11.13	381.6	-77.59	
4.38901	382.6	-81.03	
1.15301	380.6	-79.48	
-2.41799	383.7	-81.07	
0.98461	377.9	-76.86	
-2.88699	375.5	-77.94	
-3.43199	376.7	-82.79	
-5.45199	375.4	-75.41	
-2.61399	371.7	-74.57	
1.79501	371.6	-76.05	
-2.80199	369.7	-71.35	
-2.62099	371.4	-67.93	
-5.68199	375.2	-66.87	
-2.36799	368.8	-65.44	
2.14301	369	-65.38	
2.40001	373.3	-63	
2.43401	366.4	-62.71	
5.91401	368.7	-60.97	
3.26001	371.9	-59.77	
6.03001	365.7	-58.69	
6.78501	368.5	-55.24	
3.14801	370.6	-56	
6.35901	365.5	-52.79	
3.15401	368.4	-50.59	
0.0330599	369.7	-53.44	
1.44701	366	-47.95	
-1.98699	369	-47.5	
-4.23799	368.8	-51.85	
-3.31999	366.4	-45.04	
-7.37799	367.3	-47.1	
-5.99099	365.9	-50.95	
-8.36599	364.7	-44.67	
-11.26	362.9	-47.8	
-8.03699	362.6	-50.53	
-11.23	359.9	-45.63	
-12.04	357.4	-49.43	
-7.68299	357.8	-51.51	
-11.76	354.6	-46.9	
-9.74699	352.4	-50.52	
-5.33599	354.5	-51.01	
-8.94899	349.3	-48.42	
-5.20199	348.8	-50.88	
-1.84799	352.3	-49.56	
-5.18799	345.8	-48.57	
-0.734391	346.8	-48.29	
-0.350391	350.6	-46.56	
0.625909	343.6	-46.55	
2.71401	346.1	-43.31	
-0.0952806	349.2	-42.54	
2.94301	343.1	-41.05	
1.69301	345.7	-37.54	
5.48201	347.5	-37.59	
-0.945191	347.5	-39.69	
0.995009	351.2	-37.66	
5.51301	351.4	-39.52	
-1.22499	353.4	-39.82	
2.04601	356.6	-39.35	
4.62001	354.1	-41.76	
-0.14259	358.9	-41.3	
3.35801	361.9	-41.5	
5.67601	361.4	-36.96	
4.53401	362	-45.08	
6.87601	358.9	-45.59	
3.71201	355.4	-44.71	
6.16301	360.2	-49.19	
6.12801	356.1	-50.76	
2.51101	355.1	-48.63	
5.77501	357.8	-53.98	
2.91101	354.3	-55.04	
0.18031	355.3	-51.87	
2.27901	356.4	-58.06	
-1.96099	354.5	-58.23	
-3.05199	356.2	-54.55	
-2.57399	357.1	-60.88	
-6.92899	357.1	-59.38	
-6.71399	359.4	-54.95	
-7.74099	359.9	-61.94	
-10.91	361.4	-58.89	
-7.88199	363.1	-55.5	
-11.77	364	-61.42	
-13.49	366.4	-57.87	
-9.02999	367	-55.9	
-14.93	368.7	-60.44	
-12.37	371.7	-58.1	
-7.92899	369.3	-58.35	
-13.35	374.2	-60.69	
-10.27	377	-61.25	
-6.57499	374.4	-63.24	
-12.05	380.1	-61.91	
-12.27	381	-66.18	
-15.65	383.6	-64.97	
-8.76599	381.4	-67.31	
-6.12099	383.3	-65.23	
-4.35099	379.7	-67.09	
-4.29999	386.3	-63.92	
-6.93999	387.8	-61.14	
-4.82699	391.9	-62.5	
-9.93199	387.3	-63.58	
-11.11	391.5	-63.4	
-7.35599	392.3	-65.27	
-13.99	390.4	-65.68	
-13.41	394.4	-67.98	
-9.23799	393.9	-68.85	
-15.59	392.5	-70.41	
-13.29	395.2	-73.48	
-8.66999	393.7	-73.14	
-14.36	393.5	-76.82	
-10.52	394.8	-78.96	
-6.79499	392.1	-77.01	
-11.77	392.8	-82.02	
-7.54599	392	-83.37	
-6.97899	389.5	-79.94	
-9.57399	390.5	-86.19	
-7.67999	386.7	-84.85	
-9.44399	386.7	-80.63	
-9.64399	385.4	-87.84	
-11.34	381.9	-85.61	
-7.54199	380	-86.2	
-11.98	384.2	-82.8	
-9.66699	381	-80.32	
-5.24199	381	-82.61	
-10.09	383.2	-77.27	
-6.37699	382.6	-75.46	
-3.34599	385.6	-77.93	
-6.89499	381.3	-72.02	
-3.31599	383.1	-69.8	
-0.13419	379.7	-70.8	
-3.47099	386.2	-72.05	
0.70461	385.2	-73.2	
-1.01999	381.3	-74.07	
3.64801	387.6	-73.04	
2.25301	389.4	-76.96	
-1.96899	388.6	-76.56	
3.36601	392.5	-75.1	
0.272811	395.3	-76.82	
-3.04999	393	-75.4	
1.76801	397.4	-74.09	
-2.21899	399.6	-73.7	
-5.34299	396.1	-72.19	
-0.984689	401.4	-70.53	
-5.08699	402	-69.01	
-6.57899	397.4	-68.02	
-3.03799	403	-65.99	
-6.68499	401.2	-63.75	
-5.18399	397.4	-64.64	
-5.14699	402.5	-60.55	
-7.01899	399	-58.15	
-4.65199	396.4	-60.39	
-4.91399	400.1	-55.17	
-4.25499	395.6	-54.26	
-1.76199	395.3	-57.66	
-2.28899	396.7	-51.14	
0.398711	393.1	-51.61	
1.99301	394.3	-55.34	
2.31801	394.9	-48.94	
6.08601	392.7	-50.47	
5.84301	394.8	-54.1	
8.57001	395.1	-49.08	
12.04	393.2	-50.83	
11.36	396.4	-54.24	
13.66	395.2	-48.07	
16.64	396.7	-51.35	
13.65	399.3	-52.81	
18.86	398.2	-48.6	
17.86	402	-50.96	
13.06	402	-50.08	
19.82	404.4	-48.59	
15.95	406.7	-48.59	
12.99	403.5	-46.58	
17.58	409	-45.91	
13.3	408.6	-44.13	
14.32	404.7	-43.24	
14.06	411.2	-41.34	
11.92	408.6	-38.24	
13.91	404.7	-38.82	
13.54	411.1	-35.85	
14.48	407.9	-33.03	
16.82	404.1	-35.31	
-79.18	397.6	35.58	
-75.62	399.2	35.61	
-78.76	394	34.08	
-77.26	393.6	38.38	
-77.12	389	37.97	
-73.66	394.6	37.96	
-72.35	391.7	41.34	
-73.17	388.5	38.82	
-69.08	393.3	40.52	
-67.41	388.9	40.42	
-69.06	386.7	36.31	
-63.86	389.8	39.32	
-62.83	385.4	38.4	
-65.35	385.3	34.35	
-59.32	386.5	37.36	
-59.81	383.7	33.72	
-62.98	385.7	30.55	
-56.38	384.3	32.17	
-57.51	382.9	28.03	
-60.75	386.5	26.97	
-55.58	380.6	27.01	
-51.08	381.6	26.68	
-51.13	381.7	30.89	
-51.62	379.2	24.36	
-48.11	376.2	23.57	
-43.08	376.6	24.81	
-50.1	375.7	20.53	
-52.03	371.9	21.94	
-49.04	370.2	25.28	
-54.54	374.1	23.88	
-55.15	371.1	27.14	
-50.85	371.2	29.36	
-57.16	374	28.52	
-56.32	372.8	32.75	
-51.45	373.6	32.81	
-58.03	376.1	33.85	
-54.04	377.1	36.25	
-50.92	377.4	33.27	
-54.63	380.7	37.74	
-50.08	381.2	38.71	
-47.08	381.4	34.76	
-50.81	384.8	39.92	
-46.88	385.8	37.72	
-48.18	385.1	32.92	
-46.92	389	39.82	
-48.7	391.5	36.91	
-51.84	388.8	35.79	
-47.35	395.1	37.32	
-49.93	396.1	41.03	
-50.65	391.9	41.8	
-48.92	399.5	41.34	
-45.29	397.3	40.63	
-46.74	394.7	43.92	
-44.05	398.5	37.91	
-42.49	396.4	34.8	
-43.23	399.6	31.16	
-41.56	392.7	34.59	
-38.15	392.6	31.45	
-36.42	397.3	31.67	
-38.73	390.6	28.5	
-36.91	387.6	31.69	
-37.09	388.4	36.26	
-36.89	383.8	31.22	
-40.18	382	30.43	
-43.06	383.4	26.64	
-39.38	378.4	30.64	
-40.73	378.2	34.94	
-45.56	378.6	34.01	
-40.06	374.5	35.14	
-43.75	374.1	37.78	
-46.29	375	34.46	
-42.51	370.5	37.95	
-46.77	369.1	37.55	
-47.22	371.2	33.82	
-45.55	365.5	37.15	
-48.25	365.5	33.15	
-47.04	368.8	30.47	
-47.28	362.1	31.38	
-49.14	363.7	27.47	
-46.15	367.3	26.17	
-47.98	360.3	26.14	
-46.59	362.7	22.48	
-43.82	365.1	24.78	
-45.56	359.4	21.47	
-41.76	361.2	19.58	
-40.86	363.1	23.28	
-40.46	357.7	19.69	
-36.2	359.5	20.06	
-36.52	361.2	24.61	
-35.35	355.8	20.3	
-32.14	357.5	23.32	
-34.64	358.7	27.33	
-30.88	353.9	24.2	
-30.13	355.4	28.38	
-34.47	356	30.79	
-28.89	351.8	28.45	
-30.94	351.8	32.53	
-35.06	352.5	31.93	
-29.59	348.5	34.04	
-33.9	347.1	35	
-36.09	348.4	31.63	
-32.69	343.5	35.29	
-36.36	342.2	32.96	
-38.73	343	36.33	
-36	345.1	30.54	
-40.61	345.4	31.39	
-40.84	346.7	36.1	
-40.69	348.6	29.31	
-44.34	349.7	31.84	
-41.68	350.1	35.22	
-44.64	352.8	29.73	
-47.84	354.4	32.65	
-50.43	350.2	34.08	
-46.29	357.3	34.47	
-44.11	355.8	37.35	
-40.98	353.4	34.69	
-43.1	359.6	37.14	
-38.88	358.6	38.1	
-38.35	356.5	34.35	
-38.52	362.2	38.1	
-34.41	361.4	36.12	
-36.18	359.5	32.7	
-34.36	365.1	35.75	
-31.7	364.5	31.99	
-34.71	362.4	29.95	
-32.25	368.1	31.49	
-31.99	367.2	26.98	
-36.19	364.8	25.96	
-32.65	370.9	26.24	
-34.72	369.5	22.33	
-38.69	367.4	24.31	
-35.3	373.1	21.56	
-38.69	371.6	18.81	
-41.33	370	22.63	
-38.84	375.1	17.54	
-43.18	374.7	19.05	
-42.17	373.2	23.8	
-43.63	378.3	18.18	
-46.34	380.1	20.82	
-44.08	380	25.21	
-48.07	382.5	18.71	
-46.48	386.5	19.18	
-48.4	387.2	15.24	
-47.09	387.4	22.72	
-50.35	386.6	24.56	
-46.87	386	27.23	
-53.97	387.1	25.56	
-56.02	385.8	22.21	
-59.14	389.1	23.84	
-53.54	387.7	19.89	
-56.81	390	18.01	
-57.4	391.8	21.87	
-54.02	391.5	15.84	
-56.14	395.6	16.2	
-56.33	395.7	20.48	
-52.79	396.7	14.88	
-53.92	400.6	17.25	
-54.04	399.1	21.9	
-50.52	402.4	17.15	
-51.38	404.7	21.06	
-51.15	401.3	24.73	
-47.82	406.2	20.79	
-47.56	406.6	25.26	
-47.48	402.3	25.55	
-44.29	408.2	24.11	
-42.37	404.8	26.31	
-44.21	401.5	23.77	
-39.3	406.7	25.2	
-37.18	403	23.71	
-36.32	402.2	27.8	
-40.42	402.1	22.16	
-39.69	398.1	24.44	
-39.59	399.6	29.16	
-43	396.8	23.07	
-44.37	394.7	26.41	
-46.25	398.2	29.32	
-44.95	391.1	25.47	
-48.52	390.1	28.18	
-45.99	388.8	32.02	
-49.75	393.6	27.97	
-49.37	393.7	32.39	
-45.33	392.4	31.54	
-52.15	394.8	34.8	
-51.23	399.1	33.91	
-49.77	398.7	29.89	
-54.97	399.2	34.12	
-55.57	402.4	31	
-53.68	400.2	27.88	
-59.09	401.2	31.56	
-60.15	402.4	27.26	
-57.34	399.5	24.52	
-63.55	400.7	27.54	
-63.8	400.1	23.19	
-60.27	396.8	22.31	
-66.78	398	24.4	
-65.59	395.4	20.74	
-62.39	393.9	23	
-68.66	393.3	21.4	
-66.64	389.6	19.7	
-63.98	389.8	22.85	
-69.66	387.6	20.96	
-66.66	384.3	22.17	
-65.21	386.7	25.29	
-69.62	382.1	23.29	
-67.12	380.3	26.58	
-66.51	384	28.65	
-70.48	379	27.61	
-68.83	378.8	31.91	
-68.57	383	32.03	
-72.11	378.8	33.65	
-70.48	378.9	37.66	
-71.12	383.6	37.14	
-73.95	377.6	38.36	
-74.19	381	41.62	
-74.84	383.9	38.58	
-77.41	379.4	42.99	
-79.05	383.6	41.84	
-78.32	383.2	37.03	
-82.67	382.8	42.89	
-83.63	384.3	38.75	
-81.33	381.1	36.04	
-87.28	383.3	39.43	
-86.89	381.9	35.01	
-84.39	378.9	36.48	
-90.61	381	34.77	
-89.63	377.1	32.53	
-86.64	375.3	35.21	
-93.29	376.4	33.22	
-92.44	372.2	34.11	
-88.76	371.9	37.44	
51.65	364.8	0.84671	
52.26	368.6	1.16801	
51.91	363.3	4.43901	
47.75	365.2	4.34001	
46.62	363.2	8.38101	
48.58	368.7	5.32501	
44.49	369.2	7.41701	
45.79	366.7	10.41	
45.88	372.7	7.84301	
44.58	372.2	12.37	
47.7	369.1	14.52	
46.01	375.5	13.62	
45.48	374.3	18.02	
49.19	371.3	18.05	
46.93	377.7	19.04	
49.41	375.4	22.19	
52.98	372.9	19.86	
51.21	378.4	23.67	
54.61	376	25.49	
56.69	374.6	21.24	
54.89	376.6	28.58	
55.64	380.9	29.99	
51.71	381.6	28.71	
57.03	378.9	32.39	
56.92	380.6	36.74	
56.01	385.4	38.5	
59.55	378	37.11	
56.91	374.9	38.98	
53.3	377.4	40.86	
55.73	374	35.41	
51.66	372.8	36.72	
49.71	377	38.09	
51.25	372.5	32.95	
46.89	373.5	33.18	
47.23	378.2	34.81	
46.86	373.6	29.34	
45.06	378	29.7	
48.07	380.4	31.74	
44.81	379.4	26	
44.2	383.8	27.47	
48.08	385.8	29.8	
44.21	384.9	23.78	
46.73	388.4	25.39	
50.97	386.1	26.75	
45.78	390.1	22.18	
49.31	389.2	20.01	
49.36	385	21.14	
50.14	392	17.53	
46.9	390.9	14.43	
44.76	388.5	17.39	
47.72	393.3	12.01	
47.78	395.4	15.8	
43.78	393.5	16.37	
50.79	396.5	16.08	
53.07	396.4	19.46	
57.56	396.5	17.39	
52.08	395.5	23.06	
55.12	397.9	25.64	
56.5	401.6	22.47	
57.23	396	27.85	
53.31	396.9	30.3	
49.26	397.9	28.26	
52.51	395.2	33.6	
52.55	391.3	33.82	
56.52	388.7	32.28	
51.21	390.5	37.13	
47.03	390	35.49	
47.91	385.7	33.1	
45.65	389	38.84	
42.93	386	36.68	
46.3	383.6	35.6	
41.62	385.6	40.23	
41.43	381.2	39.47	
45.62	381	38.53	
40.65	380.6	43.19	
44.35	377.5	43.02	
48	379.5	41.56	
44.94	376.5	46.79	
49.09	374.9	45.69	
51.6	378.9	44.4	
49.27	374.1	49.45	
53.58	375.8	49.05	
52.24	379.7	47.77	
53.45	375	52.63	
55.94	378.8	53.44	
53.09	381.1	51.29	
54.74	378.5	56.94	
55.11	383.1	57.35	
51.34	384.3	54.56	
53.7	382.3	60.75	
51.48	386.3	60.09	
48.02	385.4	56.75	
49.51	386.1	63.41	
46.09	388.1	61.35	
43.88	385	58.12	
44.88	387.7	64.93	
40.97	386.6	62.83	
41.63	383.2	60.47	
38.49	386.6	65.83	
37	382.4	64.69	
40.53	380.4	63.53	
35.6	381.9	68.18	
37.24	377.7	68.21	
34.24	376.5	65.51	
40.51	378.8	66.58	
39.66	375.1	63.93	
35.62	376.3	61.45	
42.66	376	61.83	
40.53	373.7	58.42	
37.56	376.9	58.41	
43.52	374.4	56.32	
41.19	372.9	52.67	
38.39	369	54.53	
40.46	375.8	50.46	
37.34	377.6	51.91	
39.14	378.8	56.17	
38.8	380.1	49.3	
37.68	383.6	51.9	
40.57	382.5	54.88	
38.89	385.5	49	
40.6	388.4	52.22	
43.15	385.4	53.91	
42.16	390	49.25	
45.59	391.4	52.05	
46.76	387.5	52.9	
47.25	392.4	48.86	
51.22	391.4	50.99	
51.26	386.5	51.32	
53.1	392.3	47.79	
56.26	389.2	49.1	
53.62	385.1	48.36	
58.16	390.1	46.01	
60.17	386	46.41	
55.96	383.6	45.43	
62.51	387.1	43.75	
60.82	383.4	41.63	
55.89	384.5	42.02	
62.81	384.5	38.62	
60.83	383.3	35.12	
56.73	386.1	35.04	
63.55	382.5	32.87	
64.48	385.7	30.12	
68.37	383.6	29.71	
61.42	386.2	28.09	
59.3	383.3	26.76	
56.69	386.6	28.17	
58.41	380.5	24.36	
61.1	377.6	25.37	
60.53	376.6	20.72	
63.99	380.2	25.57	
66.43	378	22.62	
63.33	378.9	19.83	
69.04	380.7	23.29	
69.97	380.7	18.79	
65.98	381.4	17.38	
71.68	383.9	19.81	
70.68	385	15.38	
65.81	385.1	15.24	
71.49	388.8	15.44	
68.5	389.7	12.1	
63.93	389.1	14.02	
69.35	393.5	12.62	
65.27	394.7	11.17	
63.6	392.9	14.7	
66.98	398.1	11.69	
63.85	398.7	14.81	
65.1	395.1	17.43	
65.62	402	14.97	
65.88	402	19.48	
61.78	403.1	19.43	
66.93	398.4	19.18	
63.49	397.7	22.24	
59.55	399.4	19.65	
64.27	394	22.1	
60.39	392.5	22.28	
58.73	392.9	17.67	
60.1	390.2	25.26	
57.08	387.1	23.7	
53.1	389.5	24.93	
58.41	387.6	20.19	
54.28	388.8	19.07	
54.77	391.6	22.33	
52.25	387.2	16.25	
54.55	389.7	13.26	
58.24	390.1	15.46	
54.28	386.5	11.36	
58.25	386.8	9.27101	
60.53	387	12.85	
57.22	383.3	8.44101	
61.66	382.2	8.10201	
63.35	382.8	12.67	
60.72	378.5	7.86401	
64.61	377.2	9.48101	
64.48	378.7	14.12	
62.71	373.9	9.44201	
65.35	373.1	13.2	
62.82	375.7	15.35	
63.96	369.6	13.29	
64.38	369.4	17.89	
61.58	372.5	18.05	
62.45	366.1	17.76	
60.32	367.5	21.61	
58.22	370.4	19.38	
58.47	364.2	21.7	
54.85	366.2	23.49	
54.11	368.7	20.16	
53.34	362.8	22.72	
49.26	365	22.5	
50.53	367.1	19.07	
47.52	362.4	20.46	
43.82	364.6	20.02	
45.83	366	15.97	
42.64	361.1	19.25	
40.65	363	15.44	
44.45	363.1	13.55	
38.74	359.7	14.88	
41.14	359.9	10.93	
45.57	359.5	12.94	
39.78	356.5	9.59401	
44.18	355.6	8.95001	
45.74	355.7	13.52	
43.08	352	7.93101	
46.82	351	10.47	
44.52	352.1	13.78	
46.62	347.3	9.56701	
47.51	346	13.86	
44.47	348.3	16.08	
46.52	342.6	12.54	
44.34	341.7	16.18	
41.18	345.4	17.32	
-345.4	17.32	-41.18	
