51.23	12.17	319.3	
51.19	8.328	318.5	
53.13	13.85	316.3	
48.99	13	314.6	
49.91	15.55	310.8	
49.46	9.47	313.4	
46.49	10.15	309.9	
49.31	12.62	308.1	
47.27	6.533	309.4	
47.95	7.734	304.9	
52.19	10.21	304.6	
49.11	4.298	303.7	
50.56	5.959	299.6	
54.47	7.985	301.5	
51.63	2.435	298.6	
55.53	4.382	297.1	
58.31	5.706	300.9	
57.16	1.145	295.8	
61.38	2.798	295.8	
61.87	3.333	300.7	
62.73	2.502	292.9	
63.16	-1.729	291.2	
58.97	-1.644	290.8	
65.7	0.03484	289.8	
66.98	-1.145	285.5	
65.95	-5.402	282.7	
69.97	0.7263	286.5	
68.9	4.536	284.4	
65.91	3.147	281	
66.61	5.358	287.4	
63.69	7.667	285	
61.68	4.184	282.3	
61.9	7.661	288.3	
57.87	7.775	286.4	
57.95	3.347	284.2	
56.33	7.31	289.9	
54.02	3.524	288.1	
57.09	0.718	286.9	
52.11	1.967	291.2	
51.31	-2.013	288.9	
55.34	-4.684	287.8	
49.66	-3.464	292.1	
51.92	-7.313	290.9	
56.71	-5.936	291.6	
49.49	-9.034	293.2	
52.01	-9.131	296.6	
53.28	-5.004	296.3	
51.26	-12.3	298.7	
47.35	-10.7	300.6	
47.01	-7.651	297.5	
46.7	-13.45	302.7	
47.83	-15.14	298.8	
44.79	-12.36	297.2	
50.45	-16.95	299.5	
53.84	-17.07	297.2	
57.06	-18.44	300.7	
54.51	-15.68	293.7	
57.8	-18.48	292	
57.14	-22.6	294.8	
60.93	-16.93	291.1	
58.18	-16.63	287.3	
53.53	-16.84	287.5	
59.06	-14.47	284.3	
59.9	-10.73	284.7	
63.37	-9.322	288	
60.13	-9.316	281.4	
55.82	-7.971	281.5	
56.47	-4.302	284.7	
56.06	-6.373	278.1	
53.32	-3.08	279.6	
56.39	-1.644	282.2	
53.61	-2.009	275.9	
53.96	2.242	277.3	
57.4	1.305	279.7	
54.82	3.343	273.7	
58.67	5.438	275.8	
61.01	2.467	278.1	
60.84	6.559	272.7	
64.47	7.067	275.5	
65.49	2.479	276.9	
66.22	8.055	272.2	
69.65	5.393	273.8	
67.22	1.846	273.9	
71.07	6.467	270.6	
72.92	2.273	270.1	
69.08	0.5625	270.7	
73.26	3.228	266.6	
72.89	-1.271	265.5	
68.18	-1.842	266.5	
73.1	0.1587	262	
70.07	-3.312	261.1	
65.83	-1.887	263.1	
69.65	-2.262	257.4	
65.37	-3.639	257.7	
62.71	-0.3864	260.4	
65.76	-2.567	254.1	
61.61	-0.7878	254.8	
61.94	2.162	257.8	
60.54	0.0724	251.2	
59.55	4.416	252.4	
62.65	5.388	255.1	
59.72	5.505	248.8	
62.01	9.217	250.1	
58.47	10.79	251.7	
64.1	7.159	252.5	
63.01	10.78	255.3	
58.18	10.34	255.9	
64.72	8.966	258.2	
61.91	11.34	260.9	
58.63	9.014	259.3	
63.65	9.761	263.8	
60.42	11.53	266.6	
59.35	16.09	264.5	
58.36	8.629	267.8	
55.77	7.764	265.1	
58.83	6.556	261.6	
55.6	4.767	267.6	
54.96	1.945	264.2	
58.94	2.582	262.7	
54.57	-0.4732	266.9	
56.83	-3.368	264.1	
60.34	-0.9227	264	
56.78	-5.563	267.1	
60.7	-7.483	265.5	
62.82	-3.903	265.8	
60.76	-9.176	268.9	
65.35	-8.977	268.5	
66.45	-4.172	269.1	
65.64	-10.59	272	
69.59	-8.173	272.4	
67.67	-3.709	272.9	
69.92	-9.812	275.8	
72.67	-6.264	276.9	
68.92	-3.083	276.7	
73.53	-8.195	279.9	
71.88	-4.376	281.9	
67.37	-4.23	279.6	
72.31	-6.129	285.2	
69.37	-4.88	287.9	
65.12	-6.569	286	
71.11	-4.918	291.1	
70.27	-8.538	293.4	
74.01	-7.474	295.5	
66.62	-8.475	294.1	
64.74	-5.264	295	
62.32	-7.682	292.2	
63.53	-2.567	297.4	
66.89	-0.2569	298	
64.77	0.4504	302.2	
69.1	-3.446	298.3	
70.56	-2.167	302.3	
66.51	-2.587	303.6	
72.67	-5.36	302.2	
71.76	-5.963	306.6	
67.49	-5.792	306.4	
73.11	-9.372	305.7	
70.27	-10.63	309.3	
65.81	-9.581	307.6	
70.31	-14.49	308.8	
66.14	-14.97	310.7	
62.89	-13.11	307.4	
66.41	-18.75	309.8	
61.95	-19.08	309.5	
62.13	-16.67	306	
63.06	-22.7	309	
61.34	-22.26	304.9	
64.14	-18.9	303.6	
62.37	-25.9	304.9	
64.36	-25.54	300.8	
60.42	-25.66	299.2	
65.85	-22.37	302.1	
64.07	-20.59	298.2	
59.21	-21.47	298.8	
65.42	-17.21	299.2	
62.27	-14.79	297.9	
58.91	-15.2	301.5	
63.58	-12.27	295.5	
60.84	-8.682	296.4	
57.29	-9.888	293.4	
60.59	-9.748	300	
56.21	-10	299.3	
57.39	-12.54	296	
53.57	-8.248	301.5	
54.01	-11.55	304.6	
58.13	-12.58	303.8	
53.62	-8.542	306.8	
56.34	-9.985	310.1	
59.76	-10.34	307.6	
55.75	-6.412	311.1	
59.83	-6.365	313.2	
63.01	-7.012	309.5	
59.59	-2.585	313.7	
63.97	-2.124	313.9	
65.37	-3.154	309.3	
62.86	1.515	313.8	
66.84	1.959	311.4	
64.91	0.2719	308.1	
66.27	5.671	311.4	
68.48	6.172	307.4	
65.45	3.926	305.7	
67.3	9.808	307.4	
66.61	9.303	302.9	
63.3	6.786	303.6	
65.6	12.99	302.7	
62.66	12.08	299.4	
60.22	9.538	301.8	
61.62	15.61	300.2	
57.45	14.5	298.5	
56.88	11.87	301.8	
55.58	17.23	300.2	
51.65	15.93	298.9	
51.63	13.75	303.1	
50.95	19.52	299.8	
47.32	17.87	302.3	
49.99	16.64	305.3	
45.99	21.45	302.7	
46.59	20.35	307.1	
51.44	19.85	306.9	
45.47	23.8	308.4	
49.35	23.55	310.8	
52.52	23.48	307.1	
48.63	27.16	311.9	
53.19	27.51	311.1	
52.18	27.25	307.1	
53.36	31.09	312.5	
56.05	32.45	309.1	
53.74	31.14	305.6	
55.28	35.86	310.6	
54.91	37.61	306.6	
51.81	34.91	303.8	
-59.58	47.46	303.7	
-56.29	47.42	305.8	
-58.62	48.83	300.2	
-57.17	44.5	300.1	
-56.36	44.75	295.5	
-53.74	44.88	301.5	
-52.11	41.39	299	
-52.41	43.82	295.6	
-49.09	42.2	301	
-46.8	42.13	296.9	
-48.02	46.19	294.4	
-43.39	43.19	298.2	
-41.72	43.95	294	
-44.1	48.04	293.4	
-38.38	44.96	295.6	
-38.38	48.5	292.6	
-41.73	51.8	294.1	
-35.04	50.02	293.7	
-35.86	54.13	292	
-39.56	55.36	295.1	
-33.6	55.04	290	
-29.28	55.31	291.6	
-29.45	51.12	291.8	
-29.42	57.56	289.1	
-25.5	58.19	286.6	
-20.6	56.88	287.7	
-27.32	61.25	285.7	
-28.72	59.75	281.7	
-25.6	56.3	280.6	
-31.57	57.93	283.6	
-31.82	54.59	280.7	
-27.62	52.3	281.4	
-34.25	53.34	283.3	
-33.35	49.06	282.4	
-28.64	48.94	283.8	
-35.53	48.1	285.4	
-31.79	45.66	287	
-28.67	48.59	287.7	
-32.93	44.3	290.6	
-28.51	43.27	291.7	
-25.48	47.16	292.3	
-29.78	42.18	295.2	
-25.99	44.34	296.7	
-27.05	49.13	295.6	
-26.52	42.35	299.9	
-28.58	45.37	302.1	
-31.27	46.45	298.8	
-27.77	45.06	305.8	
-30.55	41.43	306.6	
-30.68	40.53	302.3	
-30.04	41.2	310.1	
-26.11	41.78	308.3	
-27.25	38.43	305.7	
-25	44.51	309.7	
-23.09	47.52	307.7	
-24.2	51.28	310.7	
-21.63	47.59	304.2	
-18.17	50.67	304.4	
-17.14	50.57	309.4	
-18.38	53.56	302.3	
-16.23	50.24	299.7	
-16.64	45.7	300.7	
-15.67	50.59	296	
-18.64	51.38	293.7	
-21.61	55.27	294.6	
-17.33	51.04	290.2	
-18.74	46.76	290	
-23.56	47.79	289.7	
-17.55	46.42	286.4	
-21.21	43.85	285.6	
-23.78	47.24	286	
-19.47	43.53	282.2	
-23.48	43.97	280.2	
-24.14	47.77	282.1	
-21.75	44.23	276.8	
-24.32	48.28	276.3	
-23.54	51.04	279.7	
-22.84	49.91	273	
-24.81	53.91	274.2	
-22.35	55.27	278.2	
-23.15	55.11	271	
-22.04	58.82	273.5	
-19.69	56.54	276.3	
-20.51	59.7	270.3	
-16.97	61.58	272.6	
-16.43	57.93	274.6	
-15.19	61.33	269.3	
-11.24	60.94	271.7	
-11.9	56.45	273.4	
-9.88	60.56	268.2	
-7.006	57.54	270.4	
-9.753	53.61	271.4	
-5.269	56.52	267	
-4.839	52.38	268.8	
-9.277	50.07	268.8	
-3.101	52.17	265.4	
-5.227	48.13	265.2	
-9.385	48.83	265.3	
-3.447	46.49	262.2	
-7.533	45.56	260.2	
-9.803	49.01	261	
-5.827	45.14	256.9	
-9.216	47.49	254.9	
-11.75	44.19	255.5	
-9.23	50	257.8	
-13.85	49.24	257.5	
-14.37	44.58	258.8	
-14.33	51.43	260.5	
-18.17	49	261.2	
-15.67	45.59	262.1	
-18.85	51.22	264.1	
-22.31	48.41	265.3	
-24.32	46.89	260.9	
-21.24	46.65	268.5	
-18.94	43.69	267.4	
-15.44	46.21	265.4	
-18.48	44	271.3	
-14.18	42.93	270.9	
-13.27	46.6	268.9	
-14.34	43.04	274.6	
-10.11	44.92	274.3	
-11.51	48.3	272	
-10.58	45.41	277.9	
-7.774	49.09	277.6	
-10.41	51.12	275.1	
-8.827	49.72	281.1	
-8.34	54.19	280.1	
-12.12	55.22	277.1	
-9.506	55.06	283.7	
-11.26	58.96	281.8	
-14.94	57	279.3	
-12.33	59.86	285.3	
-15.4	62.63	283.3	
-17.88	58.8	281.4	
-16.03	64.01	286.7	
-20.3	62.57	285.7	
-19.2	57.76	284.5	
-21.24	63.56	289.2	
-24.24	61.04	290.6	
-22.09	56.61	291	
-26.24	63.25	292.7	
-25.26	62.89	296.9	
-27.17	66.88	297.2	
-26.08	59.39	297.9	
-29.22	57.58	296.6	
-25.76	54.83	296.6	
-32.89	56.67	296.6	
-34.67	60.01	294.9	
-38.26	58.54	297.7	
-32.44	62.35	297.1	
-35.95	64.36	298.9	
-36.87	60.57	300.6	
-33.36	66.52	300.7	
-36.05	66.33	304.4	
-36.36	62.07	304.7	
-32.87	67.63	305.9	
-34.59	65.4	309.7	
-34.61	60.71	308.4	
-31.5	65.5	312	
-32.75	61.68	314.2	
-32.13	57.9	311	
-29.43	61.93	316.2	
-29.34	57.48	316.8	
-28.65	57.05	312.6	
-26.3	58.62	318.8	
-23.98	56.28	315.8	
-25.26	58.74	312.2	
-21.18	57.39	318.1	
-18.52	58.72	314.7	
-17.65	54.59	314.2	
-21.56	60.3	313.2	
-20.32	57.87	309.5	
-20.55	53.2	311.2	
-23.38	59.26	307.7	
-24.52	55.89	305.5	
-26.94	53.12	308.8	
-24.55	56.72	301.9	
-28	54.04	300.4	
-25.4	50.11	299.6	
-29.72	54.39	303.8	
-29.46	49.97	304	
-25.26	50.7	303.3	
-32.41	47.64	304.7	
-32.11	48.66	309.1	
-30.5	52.64	308.8	
-35.83	48.52	308.7	
-36.8	51.75	311.7	
-34.55	54.76	309.7	
-40.13	51.22	310	
-41.26	55.58	310.9	
-37.98	58.16	308.3	
-44.38	55.3	308.7	
-44.43	59.64	307.9	
-40.45	60.35	305.2	
-47.12	58.42	305.5	
-45.48	61.97	303	
-42.15	59.6	302.1	
-48.23	61.3	300.5	
-45.66	62.84	297	
-43.14	59.65	297.8	
-48.39	61.57	294.7	
-44.98	60.2	291.9	
-43.97	57.13	294.6	
-47.62	59.06	289.4	
-44.96	55.67	288	
-44.93	53.71	291.8	
-48.12	54.66	286.3	
-46.56	50.32	286.4	
-46.91	50.33	290.6	
-49.85	48.65	286	
-48.35	44.61	286.5	
-49.63	45.3	291	
-51.61	43.94	284.8	
-52.4	40.79	288.1	
-53.39	43.94	290.8	
-55.39	39.43	286.1	
-57.58	40.75	290	
-56.69	45.53	289.5	
-61.08	39.74	288.7	
-62.16	43.94	290	
-59.35	46.5	287	
-65.63	43.3	288.4	
-64.95	47.67	287	
-62.07	46.05	284.4	
-68.49	47.94	285.5	
-66.92	50.03	281.8	
-63.76	47.24	280.5	
-70.45	49.39	280.6	
-69.04	48.36	276.6	
-65.42	44.95	276.9	
-35.49	-65.69	319.4	
-32.2	-63.72	318.6	
-37.94	-64.95	316.5	
-35.07	-68.05	314.7	
-37.77	-68.61	311	
-32.32	-65.81	313.4	
-31.39	-68.71	310	
-34.98	-67.6	308.2	
-28.72	-66.15	309.5	
-30.14	-66.22	304.9	
-34.47	-63.9	304.7	
-27.83	-63.44	303.7	
-30.04	-63.09	299.7	
-33.8	-60.8	301.5	
-27.61	-60.34	298.7	
-31.32	-58.04	297.1	
-33.87	-56.35	301	
-29.43	-54.96	295.8	
-33.05	-52.23	295.8	
-33.71	-52.07	300.7	
-33.53	-50.93	293	
-30.16	-48.36	291.2	
-28.05	-51.98	290.8	
-33.01	-47.12	289.8	
-32.72	-45.43	285.5	
-28.58	-44.09	282.7	
-35.87	-43.85	286.6	
-38.58	-46.76	284.5	
-35.87	-48.6	281	
-38.05	-49.13	287.5	
-38.51	-52.85	285.1	
-34.52	-52.75	282.3	
-37.54	-54.36	288.4	
-35.55	-57.86	286.5	
-31.84	-55.48	284.2	
-34.31	-58.91	290	
-29.9	-58.91	288.2	
-29.12	-54.83	286.9	
-27.54	-59.71	291.2	
-23.75	-58.32	288.8	
-23.59	-53.49	287.7	
-21.62	-58.95	292	
-19.53	-55.02	290.8	
-23.2	-51.66	291.5	
-16.77	-56.19	293.1	
-17.97	-53.97	296.5	
-22.15	-55.05	296.3	
-14.86	-52.95	298.5	
-14.16	-57.11	300.4	
-16.61	-59	297.4	
-11.46	-56.22	302.5	
-10.65	-54.39	298.7	
-11.43	-58.44	297	
-10.46	-51.21	299.3	
-12.16	-48.26	297	
-12.64	-44.78	300.5	
-13.72	-48.43	293.5	
-13.08	-44.16	291.8	
-9.192	-42.56	294.5	
-16.04	-42.32	290.9	
-14.9	-44.83	287.1	
-12.29	-48.68	287.3	
-17.24	-45.22	284.1	
-20.85	-46.46	284.6	
-23.84	-44.22	287.9	
-22.22	-47.01	281.3	
-21.11	-51.39	281.4	
-24.54	-52.74	284.6	
-22.63	-52.03	278	
-23.99	-56.09	279.5	
-26.79	-54.21	282.2	
-25.09	-56.42	275.9	
-28.88	-58.33	277.3	
-29.86	-54.9	279.7	
-30.31	-58.19	273.8	
-34.08	-56	275.8	
-32.75	-52.43	278.1	
-36.21	-54.74	272.8	
-38.51	-51.91	275.6	
-35.12	-48.63	276.9	
-40.3	-50.94	272.3	
-39.81	-46.62	273.9	
-35.51	-46.83	273.9	
-41.5	-45.98	270.7	
-38.89	-42.21	270.2	
-35.43	-44.59	270.7	
-39.93	-42.43	266.6	
-35.91	-40.4	265.5	
-32.95	-44.12	266.5	
-37.27	-40.99	262.1	
-32.74	-41.75	261.1	
-31.71	-46.11	263.1	
-33.45	-42.68	257.4	
-30.03	-45.61	257.7	
-31.39	-49.57	260.4	
-31.19	-45.85	254.1	
-30.53	-50.31	254.8	
-33.19	-51.56	257.8	
-30.74	-51.68	251.2	
-33.91	-54.8	252.5	
-36.34	-52.65	255.1	
-34.97	-55.24	248.8	
-39.32	-55.22	250.2	
-38.79	-59.06	251.8	
-38.63	-52.35	252.6	
-41.11	-55.16	255.5	
-38.21	-59.05	256.1	
-40.44	-52.74	258.3	
-40.96	-56.38	261	
-37.28	-57.96	259.4	
-40.5	-54.05	263.9	
-40.28	-57.72	266.7	
-43.64	-61.03	264.7	
-36.72	-57.96	267.9	
-34.66	-59.72	265.1	
-35.26	-56.5	261.7	
-31.99	-58.29	267.6	
-29.29	-57.38	264.2	
-31.92	-54.32	262.7	
-26.99	-56.43	266.9	
-25.73	-53.01	264	
-29.66	-51.29	264	
-23.81	-51.89	267	
-24.24	-47.55	265.4	
-28.39	-47.61	265.8	
-22.79	-46.59	268.8	
-25.37	-42.79	268.4	
-30.03	-44.37	269	
-24.11	-41.68	271.9	
-28.23	-39.58	272.4	
-31.03	-43.55	272.8	
-26.97	-38.43	275.7	
-31.42	-37.94	276.8	
-32.17	-42.79	276.6	
-30.19	-36.19	279.9	
-32.56	-39.58	281.9	
-30.36	-43.51	279.6	
-31.26	-38.28	285.2	
-30.76	-41.43	287.9	
-27.12	-44.18	286	
-31.6	-39.92	291.1	
-28.06	-38.73	293.3	
-30.9	-36.09	295.5	
-26.2	-41.87	294	
-27.94	-45.15	295	
-24.64	-45.96	292.2	
-29.58	-47.58	297.4	
-33.3	-45.92	298	
-32.75	-48.09	302.2	
-31.74	-42.37	298.3	
-33.55	-41.78	302.3	
-31.06	-45.01	303.6	
-31.93	-38.31	302.1	
-30.9	-38.75	306.6	
-28.81	-42.49	306.3	
-28.71	-35.82	305.7	
-26.11	-37.58	309.2	
-24.69	-41.93	307.5	
-22.84	-35.52	308.7	
-20.24	-38.82	310.5	
-20.16	-42.58	307.2	
-17.17	-36.62	309.6	
-14.56	-40.25	309.3	
-16.75	-41.37	305.8	
-12.05	-37.41	308.8	
-11.58	-39.13	304.7	
-15.92	-38.5	303.4	
-9.008	-36.34	304.6	
-10.4	-34.86	300.6	
-8.256	-38.15	298.9	
-13.87	-35.23	301.9	
-14.49	-37.69	298	
-11.2	-41.37	298.6	
-18.07	-38.31	299.1	
-18.51	-42.26	297.8	
-16.36	-44.9	301.3	
-21.36	-42.47	295.4	
-22.97	-46.68	296.3	
-20.12	-49.09	293.3	
-21.9	-46.32	299.9	
-19.4	-49.93	299.2	
-17.88	-47.6	295.9	
-19.49	-53.08	301.4	
-16.88	-50.97	304.4	
-18.16	-46.92	303.7	
-19.21	-52.87	306.7	
-19.37	-49.79	310	
-20.88	-46.69	307.5	
-22.1	-52.15	311	
-24.25	-48.69	313.1	
-25.4	-45.65	309.4	
-27.34	-50.87	313.7	
-30.02	-47.37	313.8	
-29.92	-45.66	309.3	
-32.54	-50.23	313.8	
-35.03	-47.07	311.4	
-32.61	-47.85	308.1	
-37.89	-49.5	311.5	
-39.51	-47.9	307.5	
-36.03	-49.31	305.8	
-42	-50.8	307.5	
-41.26	-51.14	303	
-37.37	-52.64	303.7	
-43.87	-53.93	302.9	
-41.59	-55.98	299.5	
-38.13	-56.71	301.9	
-44.05	-58.7	300.3	
-40.94	-61.68	298.7	
-38.37	-60.79	301.9	
-42.27	-64.7	300.4	
-39.12	-67.37	299.1	
-37.21	-66.24	303.2	
-41.81	-69.85	300	
-38.48	-72.07	302.4	
-38.79	-69.14	305.5	
-40.83	-75.07	302.9	
-40.16	-73.97	307.3	
-42.28	-69.57	307.1	
-42.5	-76.72	308.7	
-44.29	-73.27	311	
-45.93	-70.55	307.3	
-46.98	-75.77	312.2	
-49.67	-72.07	311.4	
-48.97	-72.81	307.3	
-52.79	-73.79	312.8	
-55.4	-72.22	309.4	
-53.11	-73.52	305.9	
-57.89	-74.65	310.9	
-59.22	-75.9	307	
-55.33	-77.14	304.1	
61.28	-10.85	411	
64.51	-9.886	409	
58.26	-9.552	408.9	
59.52	-13.37	406.8	
55.69	-13.27	404.1	
62.17	-12.01	404.5	
61.14	-15.15	401.2	
57.56	-13.14	400.5	
64.04	-13.44	399.6	
61.24	-13.24	395.8	
57.79	-9.831	396.6	
63.62	-11.24	393.6	
60.37	-10.41	390.5	
58.14	-7.124	393.1	
62.93	-8.462	388.4	
59.62	-5.273	387.8	
59.01	-2.838	392	
61.69	-2.876	385.7	
59.08	0.7462	386.5	
60.14	1.224	391.3	
58.03	2.047	383.8	
61.14	3.536	380.7	
62.03	-0.5321	380.1	
58.42	5.476	380.2	
57.68	6.9	375.8	
60.84	6.966	371.7	
55.56	9.312	377.6	
51.68	7.2	376.9	
52.53	4.588	373	
52.56	4.862	379.8	
50.41	1.354	378.1	
53.16	0.2723	374.3	
52.02	-0.2704	381.1	
52.3	-4.237	379.1	
55.54	-3.041	375.5	
54.32	-5.494	382.1	
57.74	-6.755	379	
59.07	-3.083	377.2	
60.7	-8.087	381.3	
63.71	-7.866	377.7	
64.69	-3.297	376	
66.53	-8.968	380.1	
69.01	-5.802	377.8	
66.75	-1.537	379.3	
71.99	-7.613	379.3	
72.59	-5.061	382.6	
68.43	-4.953	383.8	
76.35	-4.87	383.5	
76.57	-9.016	385.5	
72.86	-10.24	383.6	
79.93	-8.839	386.5	
79.86	-7.412	382.4	
77.59	-11.13	381.6	
81.03	-4.389	382.6	
79.48	-1.153	380.6	
81.07	2.418	383.7	
76.86	-0.9846	377.9	
77.94	2.887	375.5	
82.79	3.432	376.7	
75.41	5.452	375.4	
74.57	2.614	371.7	
76.05	-1.795	371.6	
71.35	2.802	369.7	
67.93	2.621	371.4	
66.87	5.682	375.2	
65.44	2.368	368.8	
65.38	-2.143	369	
63	-2.4	373.3	
62.71	-2.434	366.4	
60.97	-5.914	368.7	
59.77	-3.26	371.9	
58.69	-6.03	365.7	
55.24	-6.785	368.5	
56	-3.148	370.6	
52.79	-6.359	365.5	
50.59	-3.154	368.4	
53.44	-0.03305	369.7	
47.95	-1.447	366	
47.5	1.987	369	
51.85	4.238	368.8	
45.04	3.32	366.4	
47.1	7.378	367.3	
50.95	5.991	365.9	
44.67	8.366	364.7	
47.8	11.26	362.9	
50.53	8.037	362.6	
45.63	11.23	359.9	
49.43	12.04	357.4	
51.51	7.683	357.8	
46.9	11.76	354.6	
50.52	9.747	352.4	
51.01	5.336	354.5	
48.42	8.949	349.3	
50.88	5.202	348.8	
49.56	1.848	352.3	
48.57	5.188	345.8	
48.29	0.7344	346.8	
46.56	0.3504	350.6	
46.55	-0.6259	343.6	
43.31	-2.714	346.1	
42.54	0.09529	349.2	
41.05	-2.943	343.1	
37.54	-1.693	345.7	
37.59	-5.482	347.5	
39.69	0.9452	347.5	
37.66	-0.995	351.2	
39.52	-5.513	351.4	
39.82	1.225	353.4	
39.35	-2.046	356.6	
41.76	-4.62	354.1	
41.3	0.1426	358.9	
41.5	-3.358	361.9	
36.96	-5.676	361.4	
45.08	-4.534	362	
45.59	-6.876	358.9	
44.71	-3.712	355.4	
49.19	-6.163	360.2	
50.76	-6.128	356.1	
48.63	-2.511	355.1	
53.98	-5.775	357.8	
55.04	-2.911	354.3	
51.87	-0.1803	355.3	
58.06	-2.279	356.4	
58.23	1.961	354.5	
54.55	3.052	356.2	
60.88	2.574	357.1	
59.38	6.929	357.1	
54.95	6.714	359.4	
61.94	7.741	359.9	
58.89	10.91	361.4	
55.5	7.882	363.1	
61.42	11.77	364	
57.87	13.49	366.4	
55.9	9.03	367	
60.44	14.93	368.7	
58.1	12.37	371.7	
58.35	7.929	369.3	
60.69	13.35	374.2	
61.25	10.27	377	
63.24	6.575	374.4	
61.91	12.05	380.1	
66.18	12.27	381	
64.97	15.65	383.6	
67.31	8.766	381.4	
65.23	6.121	383.3	
67.09	4.351	379.7	
63.92	4.3	386.3	
61.14	6.94	387.8	
62.5	4.827	391.9	
63.58	9.932	387.3	
63.4	11.11	391.5	
65.27	7.356	392.3	
65.68	13.99	390.4	
67.98	13.41	394.4	
68.85	9.238	393.9	
70.41	15.59	392.5	
73.48	13.29	395.2	
73.14	8.67	393.7	
76.82	14.36	393.5	
78.96	10.52	394.8	
77.01	6.795	392.1	
82.02	11.77	392.8	
83.37	7.546	392	
79.94	6.979	389.5	
86.19	9.574	390.5	
84.85	7.68	386.7	
80.63	9.444	386.7	
87.84	9.644	385.4	
85.61	11.34	381.9	
86.2	7.542	380	
82.8	11.98	384.2	
80.32	9.667	381	
82.61	5.242	381	
77.27	10.09	383.2	
75.46	6.377	382.6	
77.93	3.346	385.6	
72.02	6.895	381.3	
69.8	3.316	383.1	
70.8	0.1342	379.7	
72.05	3.471	386.2	
73.2	-0.7046	385.2	
74.07	1.02	381.3	
73.04	-3.648	387.6	
76.96	-2.253	389.4	
76.56	1.969	388.6	
75.1	-3.366	392.5	
76.82	-0.2728	395.3	
75.4	3.05	393	
74.09	-1.768	397.4	
73.7	2.219	399.6	
72.19	5.343	396.1	
70.53	0.9847	401.4	
69.01	5.087	402	
68.02	6.579	397.4	
65.99	3.038	403	
63.75	6.685	401.2	
64.64	5.184	397.4	
60.55	5.147	402.5	
58.15	7.019	399	
60.39	4.652	396.4	
55.17	4.914	400.1	
54.26	4.255	395.6	
57.66	1.762	395.3	
51.14	2.289	396.7	
51.61	-0.3987	393.1	
55.34	-1.993	394.3	
48.94	-2.318	394.9	
50.47	-6.086	392.7	
54.1	-5.843	394.8	
49.08	-8.57	395.1	
50.83	-12.04	393.2	
54.24	-11.36	396.4	
48.07	-13.66	395.2	
51.35	-16.64	396.7	
52.81	-13.65	399.3	
48.6	-18.86	398.2	
50.96	-17.86	402	
50.08	-13.06	402	
48.59	-19.82	404.4	
48.59	-15.95	406.7	
46.58	-12.99	403.5	
45.91	-17.58	409	
44.13	-13.3	408.6	
43.24	-14.32	404.7	
41.34	-14.06	411.2	
38.24	-11.92	408.6	
38.82	-13.91	404.7	
35.85	-13.54	411.1	
33.03	-14.48	407.9	
35.31	-16.82	404.1	
-35.58	79.18	397.6	
-35.61	75.62	399.2	
-34.08	78.76	394	
-38.38	77.26	393.6	
-37.97	77.12	389	
-37.96	73.66	394.6	
-41.34	72.35	391.7	
-38.82	73.17	388.5	
-40.52	69.08	393.3	
-40.42	67.41	388.9	
-36.31	69.06	386.7	
-39.32	63.86	389.8	
-38.4	62.83	385.4	
-34.35	65.35	385.3	
-37.36	59.32	386.5	
-33.72	59.81	383.7	
-30.55	62.98	385.7	
-32.17	56.38	384.3	
-28.03	57.51	382.9	
-26.97	60.75	386.5	
-27.01	55.58	380.6	
-26.68	51.08	381.6	
-30.89	51.13	381.7	
-24.36	51.62	379.2	
-23.57	48.11	376.2	
-24.81	43.08	376.6	
-20.53	50.1	375.7	
-21.94	52.03	371.9	
-25.28	49.04	370.2	
-23.88	54.54	374.1	
-27.14	55.15	371.1	
-29.36	50.85	371.2	
-28.52	57.16	374	
-32.75	56.32	372.8	
-32.81	51.45	373.6	
-33.85	58.03	376.1	
-36.25	54.04	377.1	
-33.27	50.92	377.4	
-37.74	54.63	380.7	
-38.71	50.08	381.2	
-34.76	47.08	381.4	
-39.92	50.81	384.8	
-37.72	46.88	385.8	
-32.92	48.18	385.1	
-39.82	46.92	389	
-36.91	48.7	391.5	
-35.79	51.84	388.8	
-37.32	47.35	395.1	
-41.03	49.93	396.1	
-41.8	50.65	391.9	
-41.34	48.92	399.5	
-40.63	45.29	397.3	
-43.92	46.74	394.7	
-37.91	44.05	398.5	
-34.8	42.49	396.4	
-31.16	43.23	399.6	
-34.59	41.56	392.7	
-31.45	38.15	392.6	
-31.67	36.42	397.3	
-28.5	38.73	390.6	
-31.69	36.91	387.6	
-36.26	37.09	388.4	
-31.22	36.89	383.8	
-30.43	40.18	382	
-26.64	43.06	383.4	
-30.64	39.38	378.4	
-34.94	40.73	378.2	
-34.01	45.56	378.6	
-35.14	40.06	374.5	
-37.78	43.75	374.1	
-34.46	46.29	375	
-37.95	42.51	370.5	
-37.55	46.77	369.1	
-33.82	47.22	371.2	
-37.15	45.55	365.5	
-33.15	48.25	365.5	
-30.47	47.04	368.8	
-31.38	47.28	362.1	
-27.47	49.14	363.7	
-26.17	46.15	367.3	
-26.14	47.98	360.3	
-22.48	46.59	362.7	
-24.78	43.82	365.1	
-21.47	45.56	359.4	
-19.58	41.76	361.2	
-23.28	40.86	363.1	
-19.69	40.46	357.7	
-20.06	36.2	359.5	
-24.61	36.52	361.2	
-20.3	35.35	355.8	
-23.32	32.14	357.5	
-27.33	34.64	358.7	
-24.2	30.88	353.9	
-28.38	30.13	355.4	
-30.79	34.47	356	
-28.45	28.89	351.8	
-32.53	30.94	351.8	
-31.93	35.06	352.5	
-34.04	29.59	348.5	
-35	33.9	347.1	
-31.63	36.09	348.4	
-35.29	32.69	343.5	
-32.96	36.36	342.2	
-36.33	38.73	343	
-30.54	36	345.1	
-31.39	40.61	345.4	
-36.1	40.84	346.7	
-29.31	40.69	348.6	
-31.84	44.34	349.7	
-35.22	41.68	350.1	
-29.73	44.64	352.8	
-32.65	47.84	354.4	
-34.08	50.43	350.2	
-34.47	46.29	357.3	
-37.35	44.11	355.8	
-34.69	40.98	353.4	
-37.14	43.1	359.6	
-38.1	38.88	358.6	
-34.35	38.35	356.5	
-38.1	38.52	362.2	
-36.12	34.41	361.4	
-32.7	36.18	359.5	
-35.75	34.36	365.1	
-31.99	31.7	364.5	
-29.95	34.71	362.4	
-31.49	32.25	368.1	
-26.98	31.99	367.2	
-25.96	36.19	364.8	
-26.24	32.65	370.9	
-22.33	34.72	369.5	
-24.31	38.69	367.4	
-21.56	35.3	373.1	
-18.81	38.69	371.6	
-22.63	41.33	370	
-17.54	38.84	375.1	
-19.05	43.18	374.7	
-23.8	42.17	373.2	
-18.18	43.63	378.3	
-20.82	46.34	380.1	
-25.21	44.08	380	
-18.71	48.07	382.5	
-19.18	46.48	386.5	
-15.24	48.4	387.2	
-22.72	47.09	387.4	
-24.56	50.35	386.6	
-27.23	46.87	386	
-25.56	53.97	387.1	
-22.21	56.02	385.8	
-23.84	59.14	389.1	
-19.89	53.54	387.7	
-18.01	56.81	390	
-21.87	57.4	391.8	
-15.84	54.02	391.5	
-16.2	56.14	395.6	
-20.48	56.33	395.7	
-14.88	52.79	396.7	
-17.25	53.92	400.6	
-21.9	54.04	399.1	
-17.15	50.52	402.4	
-21.06	51.38	404.7	
-24.73	51.15	401.3	
-20.79	47.82	406.2	
-25.26	47.56	406.6	
-25.55	47.48	402.3	
-24.11	44.29	408.2	
-26.31	42.37	404.8	
-23.77	44.21	401.5	
-25.2	39.3	406.7	
-23.71	37.18	403	
-27.8	36.32	402.2	
-22.16	40.42	402.1	
-24.44	39.69	398.1	
-29.16	39.59	399.6	
-23.07	43	396.8	
-26.41	44.37	394.7	
-29.32	46.25	398.2	
-25.47	44.95	391.1	
-28.18	48.52	390.1	
-32.02	45.99	388.8	
-27.97	49.75	393.6	
-32.39	49.37	393.7	
-31.54	45.33	392.4	
-34.8	52.15	394.8	
-33.91	51.23	399.1	
-29.89	49.77	398.7	
-34.12	54.97	399.2	
-31	55.57	402.4	
-27.88	53.68	400.2	
-31.56	59.09	401.2	
-27.26	60.15	402.4	
-24.52	57.34	399.5	
-27.54	63.55	400.7	
-23.19	63.8	400.1	
-22.31	60.27	396.8	
-24.4	66.78	398	
-20.74	65.59	395.4	
-23	62.39	393.9	
-21.4	68.66	393.3	
-19.7	66.64	389.6	
-22.85	63.98	389.8	
-20.96	69.66	387.6	
-22.17	66.66	384.3	
-25.29	65.21	386.7	
-23.29	69.62	382.1	
-26.58	67.12	380.3	
-28.65	66.51	384	
-27.61	70.48	379	
-31.91	68.83	378.8	
-32.03	68.57	383	
-33.65	72.11	378.8	
-37.66	70.48	378.9	
-37.14	71.12	383.6	
-38.36	73.95	377.6	
-41.62	74.19	381	
-38.58	74.84	383.9	
-42.99	77.41	379.4	
-41.84	79.05	383.6	
-37.03	78.32	383.2	
-42.89	82.67	382.8	
-38.75	83.63	384.3	
-36.04	81.33	381.1	
-39.43	87.28	383.3	
-35.01	86.89	381.9	
-36.48	84.39	378.9	
-34.77	90.61	381	
-32.53	89.63	377.1	
-35.21	86.64	375.3	
-33.22	93.29	376.4	
-34.11	92.44	372.2	
-37.44	88.76	371.9	
-0.8467	-51.65	364.8	
-1.168	-52.26	368.6	
-4.439	-51.91	363.3	
-4.34	-47.75	365.2	
-8.381	-46.62	363.2	
-5.325	-48.58	368.7	
-7.417	-44.49	369.2	
-10.41	-45.79	366.7	
-7.843	-45.88	372.7	
-12.37	-44.58	372.2	
-14.52	-47.7	369.1	
-13.62	-46.01	375.5	
-18.02	-45.48	374.3	
-18.05	-49.19	371.3	
-19.04	-46.93	377.7	
-22.19	-49.41	375.4	
-19.86	-52.98	372.9	
-23.67	-51.21	378.4	
-25.49	-54.61	376	
-21.24	-56.69	374.6	
-28.58	-54.89	376.6	
-29.99	-55.64	380.9	
-28.71	-51.71	381.6	
-32.39	-57.03	378.9	
-36.74	-56.92	380.6	
-38.5	-56.01	385.4	
-37.11	-59.55	378	
-38.98	-56.91	374.9	
-40.86	-53.3	377.4	
-35.41	-55.73	374	
-36.72	-51.66	372.8	
-38.09	-49.71	377	
-32.95	-51.25	372.5	
-33.18	-46.89	373.5	
-34.81	-47.23	378.2	
-29.34	-46.86	373.6	
-29.7	-45.06	378	
-31.74	-48.07	380.4	
-26	-44.81	379.4	
-27.47	-44.2	383.8	
-29.8	-48.08	385.8	
-23.78	-44.21	384.9	
-25.39	-46.73	388.4	
-26.75	-50.97	386.1	
-22.18	-45.78	390.1	
-20.01	-49.31	389.2	
-21.14	-49.36	385	
-17.53	-50.14	392	
-14.43	-46.9	390.9	
-17.39	-44.76	388.5	
-12.01	-47.72	393.3	
-15.8	-47.78	395.4	
-16.37	-43.78	393.5	
-16.08	-50.79	396.5	
-19.46	-53.07	396.4	
-17.39	-57.56	396.5	
-23.06	-52.08	395.5	
-25.64	-55.12	397.9	
-22.47	-56.5	401.6	
-27.85	-57.23	396	
-30.3	-53.31	396.9	
-28.26	-49.26	397.9	
-33.6	-52.51	395.2	
-33.82	-52.55	391.3	
-32.28	-56.52	388.7	
-37.13	-51.21	390.5	
-35.49	-47.03	390	
-33.1	-47.91	385.7	
-38.84	-45.65	389	
-36.68	-42.93	386	
-35.6	-46.3	383.6	
-40.23	-41.62	385.6	
-39.47	-41.43	381.2	
-38.53	-45.62	381	
-43.19	-40.65	380.6	
-43.02	-44.35	377.5	
-41.56	-48	379.5	
-46.79	-44.94	376.5	
-45.69	-49.09	374.9	
-44.4	-51.6	378.9	
-49.45	-49.27	374.1	
-49.05	-53.58	375.8	
-47.77	-52.24	379.7	
-52.63	-53.45	375	
-53.44	-55.94	378.8	
-51.29	-53.09	381.1	
-56.94	-54.74	378.5	
-57.35	-55.11	383.1	
-54.56	-51.34	384.3	
-60.75	-53.7	382.3	
-60.09	-51.48	386.3	
-56.75	-48.02	385.4	
-63.41	-49.51	386.1	
-61.35	-46.09	388.1	
-58.12	-43.88	385	
-64.93	-44.88	387.7	
-62.83	-40.97	386.6	
-60.47	-41.63	383.2	
-65.83	-38.49	386.6	
-64.69	-37	382.4	
-63.53	-40.53	380.4	
-68.18	-35.6	381.9	
-68.21	-37.24	377.7	
-65.51	-34.24	376.5	
-66.58	-40.51	378.8	
-63.93	-39.66	375.1	
-61.45	-35.62	376.3	
-61.83	-42.66	376	
-58.42	-40.53	373.7	
-58.41	-37.56	376.9	
-56.32	-43.52	374.4	
-52.67	-41.19	372.9	
-54.53	-38.39	369	
-50.46	-40.46	375.8	
-51.91	-37.34	377.6	
-56.17	-39.14	378.8	
-49.3	-38.8	380.1	
-51.9	-37.68	383.6	
-54.88	-40.57	382.5	
-49	-38.89	385.5	
-52.22	-40.6	388.4	
-53.91	-43.15	385.4	
-49.25	-42.16	390	
-52.05	-45.59	391.4	
-52.9	-46.76	387.5	
-48.86	-47.25	392.4	
-50.99	-51.22	391.4	
-51.32	-51.26	386.5	
-47.79	-53.1	392.3	
-49.1	-56.26	389.2	
-48.36	-53.62	385.1	
-46.01	-58.16	390.1	
-46.41	-60.17	386	
-45.43	-55.96	383.6	
-43.75	-62.51	387.1	
-41.63	-60.82	383.4	
-42.02	-55.89	384.5	
-38.62	-62.81	384.5	
-35.12	-60.83	383.3	
-35.04	-56.73	386.1	
-32.87	-63.55	382.5	
-30.12	-64.48	385.7	
-29.71	-68.37	383.6	
-28.09	-61.42	386.2	
-26.76	-59.3	383.3	
-28.17	-56.69	386.6	
-24.36	-58.41	380.5	
-25.37	-61.1	377.6	
-20.72	-60.53	376.6	
-25.57	-63.99	380.2	
-22.62	-66.43	378	
-19.83	-63.33	378.9	
-23.29	-69.04	380.7	
-18.79	-69.97	380.7	
-17.38	-65.98	381.4	
-19.81	-71.68	383.9	
-15.38	-70.68	385	
-15.24	-65.81	385.1	
-15.44	-71.49	388.8	
-12.1	-68.5	389.7	
-14.02	-63.93	389.1	
-12.62	-69.35	393.5	
-11.17	-65.27	394.7	
-14.7	-63.6	392.9	
-11.69	-66.98	398.1	
-14.81	-63.85	398.7	
-17.43	-65.1	395.1	
-14.97	-65.62	402	
-19.48	-65.88	402	
-19.43	-61.78	403.1	
-19.18	-66.93	398.4	
-22.24	-63.49	397.7	
-19.65	-59.55	399.4	
-22.1	-64.27	394	
-22.28	-60.39	392.5	
-17.67	-58.73	392.9	
-25.26	-60.1	390.2	
-23.7	-57.08	387.1	
-24.93	-53.1	389.5	
-20.19	-58.41	387.6	
-19.07	-54.28	388.8	
-22.33	-54.77	391.6	
-16.25	-52.25	387.2	
-13.26	-54.55	389.7	
-15.46	-58.24	390.1	
-11.36	-54.28	386.5	
-9.271	-58.25	386.8	
-12.85	-60.53	387	
-8.441	-57.22	383.3	
-8.102	-61.66	382.2	
-12.67	-63.35	382.8	
-7.864	-60.72	378.5	
-9.481	-64.61	377.2	
-14.12	-64.48	378.7	
-9.442	-62.71	373.9	
-13.2	-65.35	373.1	
-15.35	-62.82	375.7	
-13.29	-63.96	369.6	
-17.89	-64.38	369.4	
-18.05	-61.58	372.5	
-17.76	-62.45	366.1	
-21.61	-60.32	367.5	
-19.38	-58.22	370.4	
-21.7	-58.47	364.2	
-23.49	-54.85	366.2	
-20.16	-54.11	368.7	
-22.72	-53.34	362.8	
-22.5	-49.26	365	
-19.07	-50.53	367.1	
-20.46	-47.52	362.4	
-20.02	-43.82	364.6	
-15.97	-45.83	366	
-19.25	-42.64	361.1	
-15.44	-40.65	363	
-13.55	-44.45	363.1	
-14.88	-38.74	359.7	
-10.93	-41.14	359.9	
-12.94	-45.57	359.5	
-9.594	-39.78	356.5	
-8.95	-44.18	355.6	
-13.52	-45.74	355.7	
-7.931	-43.08	352	
-10.47	-46.82	351	
-13.78	-44.52	352.1	
-9.567	-46.62	347.3	
-13.86	-47.51	346	
-16.08	-44.47	348.3	
-12.54	-46.52	342.6	
-16.18	-44.34	341.7	
-17.32	-41.18	345.4	
-17.32	-41.18	345.4	
