-105.317	158.074	-262.004	
-101.721	159.529	-261.41	
-105.039	154.233	-261.226	
-105.166	156.152	-257.097	
-105.705	151.987	-255.06	
-101.518	156.895	-256.581	
-101.92	156.23	-252.006	
-102.425	152.166	-252.727	
-98.3347	157.255	-252.204	
-97.5434	153.482	-249.503	
-98.0825	149.464	-252.289	
-93.7333	153.755	-249.474	
-93.2096	149.526	-247.601	
-94.2535	147.282	-251.709	
-89.4259	150.02	-247.65	
-89.2028	145.74	-249.347	
-90.7101	145.702	-254	
-85.3636	145.564	-249.58	
-85.3031	142.153	-252.564	
-87.3256	144.586	-256.376	
-83.5442	139.699	-251.468	
-79.127	140.51	-250.57	
-80.5405	142.788	-247.325	
-79.2615	137.215	-251.376	
-76.2669	134.388	-249.241	
-71.9544	135.433	-246.533	
-77.1839	132.234	-252.062	
-80.119	129.698	-249.821	
-78.7712	130.142	-245.302	
-82.7012	132.527	-250.323	
-84.8847	131.691	-246.561	
-81.6244	133.01	-243.231	
-86.6791	134.811	-247.629	
-87.5309	136.058	-243.436	
-82.89	136.876	-241.937	
-88.9101	139.377	-244.822	
-85.8117	141.582	-241.915	
-81.8719	140.37	-243.238	
-86.2346	145.429	-242.757	
-82.2574	146.5	-240.565	
-78.1306	144.694	-242.637	
-82.7156	150.196	-241.661	
-78.1589	150.001	-242.41	
-77.9054	146.808	-246.292	
-78.3408	153.758	-242.318	
-78.5679	154.346	-246.504	
-81.587	151.321	-247.19	
-76.8311	157.675	-247.459	
-80.2709	160.433	-246.038	
-81.9356	157.219	-243.605	
-78.8616	163.492	-247.063	
-75.6197	161.257	-245.104	
-78.5363	160.749	-241.823	
-73.3733	160.986	-247.452	
-71.2577	157.562	-248.223	
-70.1702	158.418	-252.975	
-70.9872	154.313	-246.222	
-66.7981	152.658	-247.346	
-64.4533	156.836	-248.859	
-66.7156	149.415	-248.923	
-66.6041	148.622	-244.291	
-68.137	151.697	-241.145	
-67.103	145.166	-242.792	
-70.1863	143.026	-243.669	
-71.3456	142.218	-248.456	
-70.1629	140.158	-241.498	
-72.8868	142.186	-238.521	
-76.9658	141.913	-241.244	
-72.9838	139.158	-236.287	
-77.3347	140.108	-235.41	
-78.4121	139.102	-239.419	
-76.8515	137.129	-232.999	
-80.9042	135.646	-234.236	
-79.7251	135.478	-238.366	
-80.2809	132.365	-232.299	
-81.4765	130.245	-236.506	
-78.8894	131.706	-239.787	
-80.5841	126.458	-235.848	
-80.7306	125.695	-240.395	
-76.8916	128.222	-242.106	
-79.8008	122.109	-239.299	
-76.8484	122.319	-242.856	
-74.6711	125.642	-241.208	
-76.1451	118.953	-241.597	
-71.6821	119.611	-242.552	
-71.7706	123.185	-240.261	
-71.1515	116.782	-240.317	
-66.9972	118.585	-239.278	
-68.5215	122.367	-236.654	
-66.9237	115.598	-236.951	
-64.671	118.638	-234.173	
-68.1113	121.746	-232.589	
-64.4207	116.104	-231.259	
-64.8475	119.597	-228.445	
-69.5593	121.253	-228.473	
-64.3652	116.618	-226.175	
-67.6207	118.698	-223.736	
-71.1193	118.858	-226.09	
-67.4712	116.719	-220.433	
-72.0071	115.888	-220.582	
-72.7075	115.157	-224.683	
-71.6173	113.035	-218.157	
-74.482	110.573	-220.695	
-77.6615	112.934	-219.323	
-72.8093	111.791	-223.87	
-77.3205	112.363	-225.079	
-78.8593	115.908	-222.088	
-76.1703	113.999	-228.339	
-80.1743	116.186	-228.261	
-78.7539	118.378	-224.81	
-79.217	117.686	-231.542	
-82.8809	120.494	-231.238	
-86.4658	117.583	-228.997	
-81.5212	123.941	-230.63	
-80.7332	124.306	-226.889	
-77.3677	120.893	-226.578	
-79.0817	127.439	-228.537	
-75.6619	127.16	-225.68	
-74.2761	123.486	-227.434	
-74.6602	130.262	-227.314	
-70.3642	128.61	-226.932	
-71.2056	125.177	-229.343	
-69.5416	131.576	-229.018	
-65.9273	129.155	-230.658	
-68.3842	126.251	-232.369	
-65.642	132.047	-233.105	
-64.0501	128.892	-236.068	
-68.0345	126.183	-237.27	
-63.7881	131.664	-238.748	
-64.6261	128.282	-241.823	
-69.3477	127.532	-240.819	
-64.2921	130.981	-244.461	
-66.7814	128.197	-247.183	
-70.7914	128.78	-244.39	
-65.8657	130.473	-249.913	
-70.4636	130.798	-250.16	
-71.3713	132.079	-245.345	
-69.9601	133.432	-252.798	
-73.0358	136.262	-252.628	
-72.404	138.545	-248.279	
-73.5191	137.175	-256.121	
-71.4942	140.908	-257.154	
-71.8359	139.371	-261.283	
-73.0868	143.54	-255.068	
-76.8504	143.637	-254.375	
-74.622	144.613	-250.683	
-80.4624	144.499	-255.216	
-81.4872	141.654	-258.016	
-84.3342	145.17	-259.487	
-78.0501	142.079	-259.791	
-80.0558	142.995	-263.652	
-81.5836	146.481	-261.707	
-76.5092	143.238	-265.073	
-77.8644	146.791	-267.541	
-79.4514	149.198	-264.38	
-74.1166	147.118	-267.859	
-75.304	151.69	-268.397	
-77.1883	152.856	-264.041	
-71.7702	153.29	-268.071	
-73.5006	157.247	-266.466	
-75.0937	156.286	-261.835	
-69.8134	158.42	-266.021	
-70.9984	161.133	-262.655	
-71.7844	157.674	-260.307	
-67.2941	161.957	-263.086	
-66.8337	160.279	-258.971	
-68.294	156.089	-260.031	
-63.3172	161.469	-259.699	
-61.4759	157.559	-258.207	
-62.1993	159.052	-254.29	
-64.154	155.858	-260.18	
-64.946	153.67	-256.164	
-66.1143	157.453	-253.151	
-67.7494	151.765	-257.825	
-70.4993	151.688	-254.679	
-72.6049	156.155	-254.848	
-71.37	148.156	-253.908	
-75.7642	148.591	-252.607	
-74.9142	149.531	-247.975	
-76.2022	151.482	-254.976	
-77.285	153.862	-251.384	
-73.5014	152.388	-249.884	
-80.5135	155.95	-251.072	
-78.5944	159.229	-253.576	
-75.9629	156.732	-255.923	
-82.1151	159.311	-254.855	
-81.0704	160.388	-259.112	
-78.67	156.94	-259.763	
-84.7269	159.575	-259.402	
-84.0676	158.339	-263.772	
-81.0748	154.45	-263.404	
-87.6028	156.902	-263.956	
-86.5242	154.112	-267.194	
-83.5108	150.953	-264.932	
-90.0327	152.911	-266.339	
-88.1616	148.782	-267.456	
-86.2161	148.787	-263.758	
-91.5778	147.275	-267.053	
-89.8161	143.222	-265.787	
-88.3412	145.159	-262.443	
-93.3821	142.127	-264.953	
-91.5978	140.046	-261.283	
-90.8357	143.76	-259.437	
-95.0772	138.699	-260.427	
-94.1618	138.933	-256.015	
-93.6716	143.168	-255.987	
-97.8694	138.295	-255.845	
-97.7814	140.362	-251.695	
-96.872	144.047	-253.625	
-101.408	141.184	-251.574	
-101.212	143.444	-247.876	
-100.816	147.118	-250.832	
-104.887	142.629	-248.018	
-105.625	147.208	-247.219	
-104.676	148.025	-251.228	
-109.337	146.477	-246.561	
-109.728	149.354	-250.097	
-107.509	146.512	-253.385	
-113.571	149.111	-250.224	
-112.831	148.33	-254.664	
-110.342	144.158	-254.29	
-116.601	147.639	-254.933	
-115.009	144.182	-257.592	
-113.727	142.481	-254.049	
-118.545	143.145	-258.702	
-117.569	138.736	-258.2	
-116.014	138.662	-254.092	
-121.325	138.421	-258.716	
-121.557	135.323	-255.626	
-119.325	136.857	-251.454	
-169.54	198.733	-172.619	
-169.085	198.024	-176.43	
-169.15	195.316	-170.823	
-164.852	196.532	-171.777	
-163.156	193.094	-169.098	
-164.464	195.099	-175.193	
-159.981	194.315	-174.578	
-160.989	191.202	-171.961	
-160.322	193.285	-178.127	
-158.002	189.407	-176.847	
-161.065	186.594	-174.217	
-158.174	187.585	-180.178	
-156.757	183.611	-178.389	
-160.928	182.656	-176.282	
-157.016	182.04	-181.882	
-159.021	178.433	-179.761	
-163.594	179.753	-178.453	
-159.546	176.301	-182.9	
-162.794	173.707	-181.118	
-166.263	177.257	-180.694	
-162.076	170.644	-181.302	
-161.348	168.843	-185.488	
-157.85	171.165	-185.509	
-162.462	166.273	-183.621	
-160.738	162.026	-184.626	
-158.26	160.354	-188.868	
-163.713	161.06	-182.702	
-161.495	160.218	-178.884	
-157.015	159.358	-180.312	
-161.598	164.036	-178.212	
-157.769	164.084	-175.985	
-154.548	163.085	-179.45	
-158.465	167.789	-176.105	
-154.122	168.827	-176.105	
-152.848	166.86	-180.425	
-155.122	172.479	-176.685	
-152.252	172.388	-180.461	
-153.934	169.441	-183.162	
-152.75	175.971	-182.2	
-150.684	174.453	-186.103	
-153.194	171.02	-188.67	
-151.427	177.919	-187.68	
-152.488	175.436	-191.421	
-156.622	173.017	-189.894	
-152.083	178.716	-193.309	
-156.205	179.814	-193.408	
-156.924	178.901	-189.172	
-156.958	181.739	-196.597	
-155.08	185.746	-195.197	
-152.826	183.643	-192.064	
-155.938	187.692	-198.032	
-154.414	183.893	-199.538	
-150.997	184.674	-196.894	
-156.881	182.706	-201.313	
-158.105	178.807	-201.25	
-162.815	179.444	-202.586	
-156.412	175.734	-199.807	
-157.927	172.198	-202.395	
-159.244	174.679	-206.659	
-159.762	169.596	-200.762	
-155.207	168.347	-200.444	
-151.774	171.48	-200.861	
-154.004	165.563	-198.223	
-154.925	165.578	-194.497	
-159.662	166.003	-193.033	
-152.93	162.803	-192.948	
-149.651	165.684	-191.81	
-152.141	167.937	-188.189	
-147.663	162.921	-190.106	
-146.449	165.957	-186.952	
-150.435	166.081	-185.418	
-144.355	162.969	-185.778	
-145.446	163.98	-181.528	
-149.642	163.648	-182.405	
-143.858	160.709	-180.348	
-148.097	159.951	-178.177	
-151.413	160.176	-181.132	
-147.819	156.209	-176.89	
-152.403	156.15	-176.345	
-154.126	156.414	-180.913	
-151.724	152.574	-175.256	
-155.429	151.571	-177.809	
-153.613	152.986	-181.451	
-154.519	148.234	-176.628	
-155.708	146.535	-180.758	
-153.063	149.254	-182.554	
-153.696	143.549	-179.683	
-152.81	142.795	-184.173	
-149.756	146.485	-184.908	
-150.763	140.009	-182.66	
-147.909	141.106	-186.248	
-145.83	145.365	-185.012	
-145.209	138.47	-185.072	
-142.108	141.379	-186.649	
-141.677	145.252	-183.51	
-140.11	138.338	-185.473	
-137.292	141.537	-183.829	
-139.404	143.795	-180.959	
-134.182	139.43	-182.966	
-134.114	141.172	-178.663	
-138.187	141.327	-177.623	
-131.98	138.317	-177.535	
-134.507	137.992	-173.725	
-132.757	141.562	-172.357	
-137.711	138.522	-175.766	
-138.58	141.547	-172.287	
-135.188	144.992	-172.838	
-141.707	142.583	-174.068	
-141.207	146.578	-171.848	
-137.689	147.304	-174.252	
-144.396	147.661	-173.418	
-143.61	151.919	-171.82	
-141.448	151.216	-167.287	
-142.839	154.104	-174.839	
-139.073	153.502	-175.688	
-139.311	148.874	-176.748	
-140.558	155.453	-178.771	
-137.969	153.11	-181.528	
-140.119	149.493	-180.758	
-139.429	155.419	-184.032	
-139.456	151.705	-186.811	
-142.065	149.464	-184.194	
-141.319	153.952	-189.024	
-143.408	150.21	-190.796	
-145.214	149.278	-187.164	
-145.563	152.683	-192.526	
-148.909	149.538	-192.163	
-150.077	149.5	-187.369	
-151.347	152.021	-193.884	
-154.673	149.982	-191.301	
-153.393	151.684	-186.931	
-157.068	152.33	-193.019	
-159.846	151.601	-189.434	
-156.734	153.871	-186.337	
-162.466	153.379	-191.393	
-162.375	156.101	-187.666	
-157.396	157.098	-187.595	
-164.802	158.325	-189.476	
-164.175	162.279	-188.345	
-159.72	163.423	-190.148	
-167.538	163.685	-188.416	
-168.365	165.837	-192.078	
-172.602	165.195	-190.94	
-165.977	168.701	-192.206	
-165.061	170.733	-189.066	
-161.456	169.989	-191.513	
-165.57	173.436	-186.471	
-168.491	171.815	-184.01	
-169.477	176.463	-183.452	
-170.507	170.626	-187.143	
-174.125	172.873	-185.934	
-171.769	176.372	-186.485	
-175.716	171.309	-189.038	
-177.811	175.317	-189.752	
-174.337	177.821	-189.745	
-178.343	173.638	-193.061	
-178.363	178.134	-194.532	
-173.849	179.695	-193.599	
-178.17	177.6	-198.343	
-176.082	181.623	-199.015	
-171.458	181.173	-197.191	
-175.832	180.689	-202.777	
-172.158	183.227	-203.265	
-170.057	180.447	-200.783	
-172.778	182.02	-206.829	
-168.87	179.932	-206.348	
-170.18	177.281	-202.897	
-169.655	179.071	-209.954	
-168.664	174.695	-209.431	
-164.603	175.921	-209.693	
-170.577	174.848	-206.221	
-166.726	173.038	-204.481	
-163.364	176.555	-205.521	
-168.375	173.114	-201.045	
-165.082	174.15	-198.683	
-164.705	179.038	-199.305	
-164.538	171.549	-196.116	
-162.907	174.083	-192.616	
-158.301	173.966	-193.889	
-165.02	177.043	-193.804	
-161.171	179.217	-194.129	
-160.071	175.851	-196.604	
-160.444	182.617	-192.538	
-162.777	184.618	-195.861	
-165.548	181.458	-196.788	
-163.829	186.721	-192.948	
-168.03	187.537	-194.384	
-169.134	183.429	-194.56	
-168.147	188.8	-190.827	
-172.641	187.863	-190.664	
-172.797	182.972	-191.145	
-172.724	188.566	-186.902	
-176.217	185.937	-186.301	
-174.47	181.492	-187.207	
-175.263	186.725	-182.702	
-176.874	182.415	-182.094	
-173.326	181.009	-183.812	
-176.382	182.903	-178.382	
-175.57	178.416	-177.724	
-172.199	178.957	-180.072	
-174.622	179.314	-174.167	
-171.24	176.196	-174.599	
-169.179	178.766	-177.222	
-170.302	176.852	-170.964	
-165.931	176.061	-171.855	
-165.566	179.349	-174.563	
-165.572	177.46	-168.419	
-161.298	178.736	-169.592	
-162.915	181.517	-172.315	
-160.873	181.34	-166.983	
-157.021	182.748	-168.397	
-159.662	185.942	-170.674	
-156.992	184.038	-164.89	
-155.71	188.118	-166.665	
-159.743	188.802	-167.874	
-154.882	189.404	-163.137	
-158.179	192.473	-164.346	
-161.827	189.232	-164.622	
-158.082	194.326	-160.952	
-162.561	193.683	-161.107	
-162.723	188.845	-160.973	
-162.667	195.148	-157.522	
-165.717	191.689	-157.013	
-162.376	189.144	-157.211	
-166.672	192.804	-153.449	
-166.618	188.532	-151.943	
-162.625	187.195	-153.258	
-166.888	190.278	-148.598	
-164.083	187.48	-146.767	
-159.956	187.152	-149.539	
-68.5833	250.17	-200.755	
-68.8434	246.68	-202.515	
-69.0651	249.524	-196.972	
-64.7293	248.215	-197.728	
-63.8908	247.882	-193.203	
-65.2373	244.614	-198.754	
-61.195	243.413	-197.007	
-62.7891	243.954	-193.196	
-62.2912	240.192	-198.541	
-61.1063	238.279	-194.285	
-64.5757	239.648	-191.081	
-62.2729	234.74	-195.07	
-61.9431	233.469	-190.678	
-65.8921	235.728	-189.292	
-63.112	229.993	-191.69	
-65.8499	230.135	-187.935	
-69.5939	233.24	-188.889	
-67.3894	226.642	-188.352	
-71.0335	227.494	-185.792	
-73.1378	230.818	-188.79	
-71.3391	225.423	-183.473	
-71.7369	220.972	-184.583	
-67.7145	221.245	-185.792	
-73.3234	221.24	-181.578	
-73.1642	217.584	-178.742	
-71.871	212.664	-179.69	
-76.0351	219.397	-177.293	
-73.7307	221.225	-173.892	
-69.9416	218.342	-173.333	
-72.5515	223.923	-176.388	
-68.644	224.595	-174.365	
-66.3299	220.387	-175.207	
-68.16	226.777	-177.385	
-63.7536	226.145	-177.448	
-63.6899	221.274	-178.445	
-63.6433	228.054	-180.8	
-61.4478	224.251	-182.646	
-64.2458	220.937	-182.278	
-60.9812	225.043	-186.436	
-59.9965	220.557	-187.419	
-63.7339	217.37	-186.754	
-59.8292	221.527	-191.188	
-62.0695	217.548	-191.817	
-66.5244	218.544	-189.717	
-60.8936	217.851	-195.395	
-64.4425	219.558	-196.95	
-64.9144	222.535	-193.853	
-64.9334	218.368	-200.564	
-61.755	221.183	-202.402	
-59.9238	221.791	-198.549	
-62.3137	220.37	-205.796	
-62.2686	216.632	-203.682	
-58.4359	218.094	-201.928	
-65.1675	215.293	-204.241	
-67.5102	213.451	-201.412	
-71.9311	214.148	-203.548	
-66.6771	212.348	-197.834	
-69.5477	208.78	-197.085	
-70.5133	207.253	-201.743	
-71.8695	209.122	-194.355	
-67.9492	207.351	-192.474	
-63.7629	207.801	-194.461	
-67.3781	207.142	-188.699	
-67.7573	210.279	-186.499	
-71.9211	213.011	-186.719	
-66.5987	209.372	-183.197	
-62.4484	210.944	-184.053	
-63.6233	215.679	-183.89	
-61.2295	210.113	-180.574	
-58.7245	213.894	-180.673	
-62.2972	216.322	-180.602	
-57.5549	212.528	-177.349	
-57.7357	216.661	-175.659	
-61.9012	217.016	-176.664	
-57.1251	215.324	-172.173	
-61.0617	217.762	-170.922	
-64.4964	216.571	-173.489	
-61.8453	216.599	-167.294	
-66.0993	218.307	-167.648	
-68.2009	215.387	-170.964	
-66.4055	216.898	-164.049	
-70.5391	215.417	-165.527	
-68.837	212.889	-168.567	
-70.5595	214.173	-162.069	
-72.7249	210.383	-163.561	
-69.6172	209.761	-166.361	
-71.6293	208.926	-160.28	
-71.5771	204.775	-162.345	
-67.6625	205.435	-165.145	
-70.3449	203.821	-158.979	
-67.7316	200.815	-161.475	
-64.2986	203.589	-163.617	
-65.869	199.449	-158.357	
-62.2285	199.003	-160.987	
-60.2345	203.469	-161.935	
-61.158	197.629	-157.621	
-57.3096	199.883	-158.583	
-58.2282	203.974	-158.823	
-54.9246	198.492	-155.889	
-53.803	202.79	-154.566	
-57.4434	204.795	-154.687	
-52.4886	201.393	-151.201	
-54.5389	204.904	-149.115	
-51.5916	207.479	-150.621	
-57.6289	204.516	-151.3	
-57.0975	209.216	-151.597	
-52.9155	209.752	-154.071	
-59.9464	209.31	-154.05	
-57.9325	213.102	-155.592	
-54.6974	210.659	-157.063	
-60.813	213.431	-157.968	
-58.5468	216.846	-160.103	
-56.1611	219.334	-156.313	
-57.5046	215.521	-163.469	
-54.2621	213.425	-162.946	
-56.0608	210.1	-160.117	
-55.4404	212.606	-166.601	
-54.0718	208.415	-166.106	
-57.1214	207.577	-163.186	
-55.036	208.185	-169.642	
-56.527	203.928	-168.482	
-59.406	205.474	-165.703	
-57.8788	204.029	-171.961	
-61.2237	201.143	-170.526	
-62.7804	203.959	-167.874	
-62.7445	201.857	-173.955	
-66.8061	201.292	-171.848	
-67.2975	205.303	-168.977	
-68.5594	202.108	-175.214	
-72.0115	203.888	-172.654	
-69.7047	207.832	-170.957	
-73.7286	204.562	-175.879	
-76.1152	207.715	-173.51	
-72.1094	210.477	-172.838	
-78.2919	207.986	-176.572	
-76.9011	212.357	-176.31	
-71.9066	211.566	-176.239	
-78.734	212.931	-179.563	
-76.7839	215.854	-181.825	
-72.4436	213.836	-183.056	
-79.5199	217.573	-183.494	
-80.0767	216.157	-187.553	
-84.145	217.923	-187.1	
-76.9473	217.017	-189.363	
-75.0755	220.335	-188.84	
-72.2173	217.004	-189.193	
-74.3994	224.024	-189.377	
-77.3643	225.839	-187.171	
-76.7755	229.159	-190.53	
-79.9933	223.292	-188.486	
-82.5584	226.555	-190.035	
-79.3404	227.442	-192.715	
-84.92	223.706	-191.039	
-85.7658	226.051	-194.949	
-81.6819	226.457	-196.215	
-87.2108	222.693	-195.861	
-86.0047	224.125	-200.175	
-81.1345	224.389	-199.977	
-86.4559	220.786	-202.134	
-83.3151	221.946	-205.245	
-78.8639	221.756	-202.968	
-83.8168	218.415	-206.779	
-79.6443	218.448	-208.413	
-78.2112	218.206	-204.389	
-81.0396	215.185	-209.834	
-77.9343	213.246	-207.267	
-79.5547	214.793	-203.279	
-79.4058	210.215	-209.015	
-79.7655	207.878	-205.202	
-75.5572	207.169	-205.516	
-81.1315	210.984	-203.668	
-77.8414	210.205	-200.472	
-73.7034	210.398	-203.222	
-78.9591	213.381	-198.718	
-75.2342	214.83	-197.488	
-73.4252	216.976	-201.483	
-75.2115	215.21	-193.776	
-72.4529	218.852	-193.273	
-68.2975	216.475	-193.167	
-73.6592	220.221	-196.576	
-69.4015	220.067	-197.848	
-69.7152	215.95	-196.59	
-67.4831	223.044	-199.34	
-69.4483	222.228	-203.307	
-73.1608	220.558	-201.907	
-69.4398	226.013	-203.286	
-73.3305	226.592	-205.506	
-75.6651	224.436	-202.671	
-72.6054	230.056	-204.283	
-77.1045	230.929	-204.248	
-78.8356	227.847	-200.818	
-76.5211	234.279	-202.487	
-80.5351	234.231	-200.663	
-80.3897	230.559	-197.551	
-78.9492	237.204	-198.881	
-81.7177	235.679	-195.423	
-79.0199	232.566	-194.801	
-80.6598	238.707	-193.471	
-81.2039	236.449	-189.498	
-78.1514	233.982	-190.756	
-79.5728	239.424	-187.737	
-77.4257	236.385	-185.078	
-74.9989	235.182	-188.324	
-75.897	239.317	-183.162	
-72.1134	236.864	-182.37	
-71.1065	236.58	-186.514	
-70.9104	240.22	-181.196	
-66.6644	238.826	-182.264	
-67.6579	238.767	-186.344	
-65.1203	242.192	-182.525	
-61.2347	240.802	-183.834	
-62.9876	241.578	-188.083	
-60.3562	244.24	-182.568	
-58.1048	244.781	-186.62	
-61.8479	245.404	-188.592	
-56.5144	248.026	-185.311	
-58.7858	249.76	-188.896	
-63.2751	248.736	-187.256	
-57.7265	253.425	-188.232	
-62.1603	254.205	-188.592	
-63.7876	251.583	-184.816	
-61.3706	257.837	-187.539	
-65.2431	257.144	-185.071	
-62.9052	254.575	-182.667	
-65.3516	260.772	-183.855	
-66.4319	259.503	-179.605	
-63.259	256.608	-178.75	
-65.7382	263.162	-178.905	
-63.747	262.213	-175.207	
-60.2725	258.675	-175.907	
-114.248	219.584	-333.952	
-113.234	215.899	-334.822	
-115.698	219.498	-330.332	
-111.203	219.35	-329.738	
-111.689	219.992	-325.121	
-110.631	215.638	-329.986	
-107.109	215.818	-326.924	
-109.868	216.577	-323.897	
-106.999	212.208	-327.843	
-106.819	211.495	-323.176	
-111.274	212.393	-321.302	
-106.931	207.691	-323.303	
-107.703	207.368	-318.813	
-112.257	208.682	-319.075	
-107.743	203.54	-319.138	
-111.463	203.605	-316.374	
-115.272	205.333	-318.912	
-112.064	199.853	-316.352	
-116.407	200.13	-315.073	
-118.143	202.181	-319.216	
-116.95	198.469	-312.421	
-116.044	193.922	-312.428	
-111.994	195.043	-312.633	
-118.509	194.311	-310.151	
-118.448	191.358	-306.517	
-115.938	186.879	-305.852	
-121.923	192.552	-306.29	
-121.218	195.556	-303.052	
-117.277	193.953	-300.895	
-119.907	197.962	-305.725	
-117.029	199.991	-303.002	
-113.776	196.521	-302.26	
-116.113	201.655	-306.262	
-111.872	202.242	-305.046	
-110.489	197.455	-304.791	
-111.13	203.47	-308.596	
-107.733	200.108	-308.822	
-109.806	196.356	-308.489	
-106.346	200.37	-312.541	
-104.2	196.212	-312.124	
-107.209	192.286	-311.615	
-103.097	196.506	-315.815	
-104.149	191.995	-315.942	
-109.172	192.166	-315.405	
-102.057	191.995	-319.11	
-105.222	192.372	-321.868	
-107.211	195.6	-319.775	
-104.376	190.525	-325.163	
-101.415	193.688	-326.733	
-100.995	195.409	-322.766	
-100.734	192.155	-329.816	
-100.545	188.973	-326.867	
-97.8449	191.732	-324.696	
-102.82	186.868	-327.836	
-105.463	184.974	-325.326	
-109.09	184.113	-328.642	
-105.581	184.841	-321.564	
-107.704	180.774	-320.63	
-106.885	178.266	-324.908	
-110.784	180.98	-318.771	
-107.315	180.647	-315.561	
-102.938	181.884	-316.536	
-107.909	181.3	-311.869	
-109.563	184.526	-310.653	
-113.932	185.972	-312.591	
-109.305	184.585	-307.054	
-105.49	187	-307.153	
-107.629	191.219	-308.511	
-105.263	187.188	-303.427	
-103.677	191.402	-303.823	
-107.531	192.77	-305.237	
-103.322	191.019	-300.089	
-104.878	195.224	-299.629	
-108.502	194.226	-301.652	
-105.053	194.674	-295.776	
-109.631	196.195	-296.271	
-111.786	193.685	-299.205	
-111.195	195.489	-292.707	
-115.388	195.884	-294.51	
-115.729	191.972	-297.444	
-116.493	195.132	-290.932	
-119.597	192.393	-293.025	
-116.54	189.871	-294.757	
-120.393	191.795	-289.468	
-121.156	187.329	-290.409	
-117.294	187.085	-292.127	
-120.837	186.835	-286.753	
-119.311	182.572	-287.672	
-114.944	183.722	-289.426	
-118.973	182.547	-283.903	
-115.172	179.99	-284.907	
-111.921	183.181	-286.739	
-114.127	179.776	-281.231	
-109.836	179.837	-282.616	
-108.635	184.466	-284.158	
-109.58	179.421	-278.862	
-106.175	182.432	-279.371	
-107.798	186.011	-280.835	
-104.481	182.218	-275.878	
-104.702	186.777	-275.354	
-108.503	187.742	-277.002	
-104.242	186.439	-271.635	
-107.485	189.555	-270.992	
-104.822	192.521	-272.3	
-109.646	188.022	-273.785	
-109.991	192.501	-274.966	
-105.492	193.743	-276.422	
-111.928	191.415	-278.049	
-110.393	195.298	-279.979	
-106.428	193.578	-279.915	
-112.412	194.418	-282.984	
-110.37	197.883	-285.247	
-109.791	201.516	-281.683	
-108.122	196.34	-287.849	
-104.817	195.3	-286.018	
-106.631	192.114	-282.92	
-104.621	193.535	-289.482	
-102.647	190.046	-287.693	
-106.179	188.929	-285.48	
-102.415	188.939	-291.172	
-103.283	184.714	-289.447	
-107.123	185.902	-287.913	
-103.505	183.835	-293.067	
-106.446	180.447	-291.844	
-109.292	183.196	-290.444	
-106.959	180.11	-295.556	
-111.261	178.851	-294.496	
-113.454	183.08	-292.99	
-112.049	178.592	-298.286	
-116.402	179.794	-297.19	
-115.579	184.425	-295.995	
-117.171	179.407	-300.817	
-120.765	182.19	-300.004	
-117.811	185.994	-299.035	
-121.916	181.305	-303.448	
-121.587	185.855	-303.914	
-116.804	186.453	-302.394	
-122.404	185.31	-307.514	
-120.529	188.222	-309.89	
-115.706	187.258	-309.458	
-122.933	188.826	-312.548	
-121.932	186.652	-316.204	
-126.206	187.295	-317.187	
-118.639	187.957	-317.286	
-117.756	191.717	-317.159	
-114.292	189.258	-315.928	
-117.702	195.267	-318.354	
-121.502	196.568	-317.449	
-120.641	199.302	-321.309	
-123.054	193.271	-318.82	
-125.622	195.364	-321.663	
-121.993	196.586	-323.551	
-126.922	191.855	-322.497	
-127.02	193.186	-326.952	
-122.923	194.433	-327.214	
-127.377	189.444	-327.327	
-125.255	190.367	-331.407	
-120.844	191.967	-330.106	
-124.399	186.746	-332.566	
-120.777	188.152	-334.999	
-117.286	189.555	-331.711	
-120.07	184.428	-335.748	
-115.652	185.224	-336.137	
-115.49	186.077	-331.944	
-115.881	181.564	-337.071	
-113.371	181.005	-333.436	
-116.391	182.707	-330.452	
-113.555	177.396	-334.631	
-114.575	175.77	-330.579	
-110.406	176.144	-329.653	
-116.936	178.579	-330.219	
-114.678	179.295	-326.202	
-110.037	180.105	-327.822	
-116.901	182.298	-325.601	
-114.113	184.896	-323.897	
-111.675	186.736	-327.765	
-115.318	185.947	-320.546	
-113.64	190.198	-320.249	
-109.329	189.095	-318.552	
-114.075	190.641	-324.032	
-109.698	191.413	-324.138	
-109.506	187.629	-321.995	
-108.054	194.452	-325.722	
-108.513	192.456	-329.766	
-112.028	190.1	-328.918	
-109.303	196.05	-330.643	
-112.363	195.165	-333.839	
-114.93	192.965	-331.209	
-112.776	198.87	-333.394	
-117.145	198.463	-334.674	
-119.147	195.682	-331.131	
-117.833	202.123	-333.705	
-122.135	201.37	-333.054	
-122.151	198.414	-329.102	
-121.782	204.857	-331.626	
-125.096	203.303	-328.769	
-122.138	201.181	-326.712	
-125.355	206.827	-327.426	
-126.587	205.218	-323.254	
-122.826	203.437	-322.999	
-126.207	208.769	-321.924	
-124.367	206.9	-318.099	
-120.9	205.88	-320.291	
-124.156	210.467	-316.671	
-120.39	209.318	-314.457	
-118.114	208.566	-317.943	
-120.308	213.015	-313.842	
-115.726	212.615	-313.369	
-115.395	211.557	-317.42	
-114.915	216.178	-314.083	
-110.619	215.678	-313.977	
-111.134	215.209	-318.651	
-110.899	219.403	-313.439	
-107.689	219.803	-316.819	
-110.681	219.006	-319.69	
-107.269	223.515	-315.935	
-108.644	223.897	-320.291	
-113.112	222.036	-319.669	
-108.633	227.798	-320.312	
-112.798	227.272	-321.939	
-114.941	225.063	-318.255	
-113.147	231.136	-321.67	
-117.341	229.841	-320.128	
-115.394	228.508	-316.741	
-118.589	233.522	-319.994	
-120.619	232.758	-315.964	
-117.312	231.01	-313.616	
-120.945	236.563	-316.041	
-119.997	236.8	-311.785	
-115.82	234.247	-310.71	
-221.724	225.678	-255.987	
-219.217	228.456	-257.097	
-219.557	222.764	-254.502	
-219.637	225.903	-251.178	
-217.745	222.905	-248.216	
-216.724	228.058	-252.183	
-215.76	229.007	-247.742	
-214.448	225.094	-247.261	
-213.204	231.119	-249.453	
-210.166	229.199	-246.413	
-209.364	224.51	-247.763	
-207.021	230.851	-247.827	
-204.248	228.108	-245.366	
-204.963	224.307	-248.159	
-201.23	229.9	-246.879	
-199.377	225.712	-247.473	
-201.709	223.41	-251.129	
-196.071	226.845	-248.993	
-195.091	222.887	-250.931	
-198.795	222.823	-254.226	
-192.246	221.819	-250.026	
-188.585	224.479	-250.966	
-190.152	227.094	-248.06	
-187.384	221.319	-250.91	
-183.005	220.753	-249.347	
-179.228	224.272	-248.753	
-183.476	217.59	-251.143	
-184.303	215.162	-247.459	
-182.293	217.661	-243.895	
-187.94	216.442	-247.643	
-188.56	216.296	-243.216	
-185.657	219.867	-241.717	
-191.814	217.912	-244.291	
-192.158	220.188	-240.452	
-188.245	223.149	-240.975	
-195.195	222.027	-242.007	
-192.941	226.104	-241.017	
-189.292	226.023	-243.337	
-195.252	228.926	-242.509	
-191.831	232.101	-242.177	
-187.907	231.305	-245.111	
-194.164	234.682	-243.867	
-190.336	235.912	-246.13	
-189.517	231.894	-249.029	
-192.245	239.138	-246.908	
-193.641	237.996	-250.733	
-195.01	234.087	-249.616	
-193.89	241.127	-252.989	
-197.789	242.721	-251.072	
-197.2	240.261	-247.558	
-198.226	245.498	-253.257	
-194.054	245.531	-252.204	
-195.554	245.229	-248.039	
-192.443	245.22	-254.976	
-189.25	242.81	-255.69	
-189.735	242.171	-260.526	
-187.062	240.881	-253.222	
-182.963	240.602	-255.372	
-183.204	244.479	-258.539	
-181.715	237.28	-256.043	
-180.206	238.307	-251.666	
-182.261	241.505	-249.001	
-178.679	235.702	-249.312	
-180.613	232.471	-248.598	
-182.262	229.567	-252.267	
-178.722	230.795	-245.903	
-181.34	232.631	-242.721	
-185.336	229.891	-243.662	
-179.523	230.822	-239.964	
-183.51	230.349	-237.814	
-184.854	227.597	-240.798	
-181.224	228.869	-235.148	
-184.276	225.636	-234.441	
-184.09	224.413	-238.564	
-181.806	223.797	-232.179	
-182.73	219.997	-235.007	
-181.901	220.982	-239.235	
-180.062	217.316	-233.854	
-180.856	214.972	-237.751	
-179.08	217.875	-241.215	
-178.179	212.655	-236.287	
-176.53	212.579	-240.572	
-175.793	216.842	-240.643	
-174.114	210.454	-238.953	
-170.791	212.299	-241.562	
-171.992	216.178	-240.289	
-168.467	210.873	-239.009	
-165.545	214.332	-240.02	
-168.032	217.999	-238.005	
-163.585	212.638	-237.234	
-162.474	217.134	-236.301	
-166.481	219.074	-234.314	
-160.421	216.098	-233.133	
-161.78	219.951	-231.238	
-166.603	219.625	-229.958	
-159.458	218.41	-228.643	
-162.676	219.883	-225.758	
-166.279	217.884	-226.677	
-160.874	219.462	-222.357	
-164.451	217.038	-220.688	
-165.616	214.675	-223.99	
-162.233	215.616	-217.937	
-164.128	211.558	-218.666	
-167.655	212.926	-216.848	
-163.986	212.032	-222.427	
-168.385	210.431	-222.039	
-170.709	213.996	-219.627	
-168.85	211.077	-225.772	
-173.294	211.475	-224.761	
-172.327	215.119	-222.654	
-173.904	211.931	-228.445	
-178.273	213.099	-227.512	
-179.537	210.107	-223.531	
-178.6	216.764	-228.275	
-177.2	218.699	-225.178	
-172.7	217.166	-225.362	
-177.594	221.403	-228.014	
-173.926	223.488	-226.628	
-171.398	220.171	-227.794	
-174.887	225.873	-229.173	
-170.344	226.225	-230.008	
-169.996	222.082	-231.082	
-171.479	228.29	-232.886	
-167.633	226.95	-235.12	
-168.776	222.909	-235.078	
-169.206	228.573	-238.019	
-167.068	225.39	-240.572	
-169.496	221.196	-239.596	
-168.686	226.873	-243.711	
-168.601	222.586	-245.486	
-171.997	220.527	-242.601	
-170.104	224.029	-248.576	
-171.537	219.731	-249.46	
-174.608	219.771	-245.628	
-172.456	221.022	-252.833	
-176.607	219.532	-251.483	
-176.881	222.027	-247.063	
-177.962	220.978	-254.643	
-181.878	222.342	-254.049	
-181.438	226.099	-250.874	
-183.479	221.655	-257.238	
-183.682	225.187	-259.734	
-184.2	222.243	-263.015	
-185.78	227.601	-257.868	
-188.971	226.608	-256.001	
-186.689	229.616	-253.689	
-192.637	225.717	-255.647	
-192.768	221.844	-257.097	
-197.213	223.303	-258.278	
-190.472	222.827	-260.081	
-193.452	221.449	-263.037	
-195.964	224.62	-261.58	
-190.799	222.434	-265.632	
-194.212	224.105	-268.276	
-195.925	226.692	-265.321	
-191.233	225.645	-269.987	
-194.428	228.92	-271.069	
-195.646	230.789	-266.721	
-192.085	231.661	-272.413	
-195.025	235.034	-271.274	
-194.922	235.314	-266.275	
-192.377	237.567	-272.526	
-193.874	240.679	-269.648	
-192.387	238.264	-266.402	
-191.201	242.59	-271.593	
-189.114	242.815	-267.633	
-188.643	238.319	-267.095	
-186.735	244.834	-269.761	
-183.064	242.715	-268.199	
-183.482	245.16	-264.741	
-185.003	239.595	-268.658	
-183.763	238.907	-264.218	
-185.875	242.766	-261.941	
-185.686	235.617	-264.267	
-187.31	235.691	-260.42	
-191.205	238.676	-260.838	
-186.208	232.621	-258.539	
-189.904	231.883	-255.916	
-188.611	234.704	-252.282	
-192.132	233.283	-258.539	
-193.401	236.241	-255.485	
-189.142	236.944	-255.167	
-197.05	237	-254.558	
-197.459	239.548	-258.228	
-194.632	237.572	-260.788	
-200.807	237.868	-258.151	
-201.355	237.617	-262.619	
-197.837	235.304	-263.27	
-204.177	235.465	-261.375	
-203.999	233.037	-265.264	
-199.572	230.988	-265.151	
-206.442	230.467	-263.864	
-204.908	227.311	-266.516	
-200.373	226.516	-264.804	
-207.174	225.276	-264.175	
-203.93	222.038	-264.925	
-201.428	224.103	-262.266	
-206.08	219.621	-262.973	
-202.421	217.324	-261.559	
-201.302	220.706	-259.473	
-204.775	215.361	-259.254	
-201.438	215.581	-256.065	
-202.134	219.686	-255.555	
-203.62	213.44	-253.717	
-201.981	215.602	-250.118	
-203.493	219.441	-251.27	
-204.796	213.757	-248.47	
-204.816	217.092	-245.288	
-206.119	219.868	-248.173	
-208.272	216.518	-244.058	
-208.314	219.85	-241.293	
-210.346	222.09	-244.984	
-211.107	217.747	-239.879	
-213.669	221.706	-239.978	
-214.183	221.295	-244.178	
-216.376	219.955	-237.878	
-218.875	221.003	-241.661	
-216.401	218.177	-244.779	
-222.098	219.346	-240.353	
-221.996	217.249	-244.341	
-217.915	214.78	-243.994	
-225.044	215.228	-243.153	
-222.649	211.859	-245.288	
-219.943	212.172	-242.127	
-225.467	209.301	-244.822	
-222.448	206.031	-243.648	
-220.17	208.065	-240.48	
-225.614	204.195	-242.665	
-223.708	202.593	-239.066	
-221.592	206.289	-236.499	
-84.5454	249.737	-257.354	
-85.4742	252.566	-259.814	
-85.06	251.148	-253.753	
-89.2994	250.171	-255.167	
-90.9996	250.856	-250.895	
-90.1663	253.333	-256.945	
-94.6247	252.875	-255.819	
-93.6732	253.827	-251.935	
-94.809	255.974	-257.993	
-97.3586	257.79	-254.438	
-94.3207	258.768	-250.726	
-97.7289	261.291	-255.888	
-99.3192	262.986	-251.928	
-95.0562	263.022	-249.785	
-99.6262	266.418	-253.611	
-97.779	268.178	-249.757	
-92.9796	267.005	-249.637	
-97.804	271.822	-250.832	
-94.6545	273.166	-247.848	
-90.8556	270.747	-249.863	
-95.7166	275.566	-246.087	
-97.0859	279.438	-248.131	
-100.284	277.118	-249.531	
-96.0235	280.378	-245.02	
-98.2578	284.028	-243.146	
-101.365	287.59	-245.295	
-95.1917	283.977	-241.046	
-97.0432	281.904	-237.531	
-101.718	282.781	-237.97	
-96.4847	278.576	-239.419	
-100.048	276.609	-237.644	
-103.706	279.045	-239.646	
-98.9644	273.911	-240.098	
-103.175	272.485	-240.643	
-105.119	276.531	-242.813	
-101.879	270.179	-243.429	
-105.121	272.194	-246.285	
-104.084	276.418	-246.54	
-104.524	270.661	-249.892	
-107.128	273.95	-251.963	
-105.298	278.542	-251.73	
-106.203	272.369	-255.35	
-105.827	276.759	-256.687	
-101.823	278.303	-254.099	
-106.116	275.359	-260.159	
-101.974	275.244	-261.057	
-100.845	273.389	-257.288	
-101.368	275.855	-264.79	
-102.689	271.663	-266.204	
-104.74	270.936	-262.414	
-101.972	272.061	-269.613	
-104.002	275.698	-268.418	
-106.996	272.883	-266.671	
-101.884	278.048	-268.998	
-101.069	281.196	-266.537	
-96.4838	282.235	-268.071	
-102.881	282.355	-263.355	
-102.009	286.924	-263.228	
-101.001	287.939	-268.085	
-100.291	288.169	-260.321	
-104.87	288.261	-259.225	
-108.01	285.599	-261.375	
-106.129	288.84	-255.69	
-104.793	286.607	-252.777	
-99.8911	286.057	-252.027	
-106.841	287.474	-249.87	
-109.704	284.073	-250.676	
-106.577	280.417	-249.326	
-111.73	284.822	-247.6	
-112.261	280.303	-247.007	
-108.113	279.857	-246.073	
-114.51	281.577	-244.213	
-112.85	278.322	-241.64	
-108.818	279.719	-242.163	
-114.628	279.842	-238.585	
-110.268	279.69	-236.513	
-107.298	281.846	-238.96	
-110.736	281.681	-233.14	
-106.188	282.103	-232.787	
-104.972	285.017	-236.527	
-107.078	284.005	-229.562	
-103.806	286.956	-231.047	
-105.892	287.891	-234.71	
-104.901	288.594	-227.95	
-104.374	292.662	-230.064	
-106.896	291.329	-233.211	
-106.545	294.021	-227.377	
-107.996	297.274	-230.34	
-110.699	294.416	-233.161	
-110.136	298.162	-227.37	
-113.24	299.097	-230.665	
-114.737	294.77	-232.391	
-116.049	300.023	-228.176	
-118.989	298.276	-231.047	
-118.665	293.294	-231.139	
-121.162	299.618	-228.233	
-123.416	295.704	-228.94	
-120.808	292.506	-228.205	
-126.625	296.301	-226.819	
-126.027	292.286	-224.655	
-121.853	292.116	-224.061	
-128.297	293.417	-221.834	
-125.402	291.683	-218.842	
-126.621	287.795	-219.903	
-122.383	292.993	-220.773	
-120.874	288.68	-220.03	
-123.92	285.876	-222.633	
-117.852	289.445	-222.152	
-117.677	284.883	-222.937	
-121.377	285.352	-225.206	
-114.593	285.521	-224.917	
-114.79	281.202	-226.437	
-116.494	278.553	-222.364	
-115.666	281.26	-230.05	
-119.517	281.69	-230.298	
-119.889	285.934	-228.134	
-118.214	282.353	-233.911	
-121.341	285.528	-234.547	
-119.503	288.124	-231.662	
-119.939	285.521	-237.941	
-120.622	290.124	-237.715	
-117.951	290.596	-234.399	
-118.787	290.065	-240.947	
-117.301	294.352	-239.957	
-115.21	293.069	-236.598	
-115.089	293.84	-242.919	
-112.051	296.517	-240.706	
-110.4	293.739	-237.008	
-109.609	296.049	-243.605	
-106.24	296.533	-240.487	
-106.815	292.249	-238.111	
-103.82	296.142	-243.308	
-100.771	294.881	-240.126	
-103.222	290.706	-239.122	
-98.1932	295.096	-242.785	
-97.5991	290.687	-241.668	
-102.395	289.134	-242.17	
-95.2004	290.512	-244.574	
-95.2535	286.644	-246.2	
-99.7658	286.26	-248.237	
-91.8196	286.136	-247.226	
-91.1732	286.877	-251.433	
-86.917	287.285	-250.238	
-93.2823	284.41	-253.222	
-93.6228	280.759	-252.112	
-97.5484	282.339	-253.448	
-92.5551	277.13	-251.829	
-89.5573	277.318	-249.064	
-88.0533	273.573	-251.645	
-88.0444	280.477	-250.761	
-84.1105	278.544	-251.292	
-86.1269	275.836	-253.901	
-83.0416	281.912	-252.727	
-80.6452	279.622	-255.909	
-83.8497	277.192	-257.401	
-80.6563	283.061	-257.45	
-80.345	280.522	-261.361	
-84.5484	278.062	-261.531	
-81.0083	283.29	-264.005	
-82.735	280.301	-267.004	
-87.1594	278.825	-265.222	
-83.5262	283.372	-269.323	
-86.9712	281.179	-271.197	
-89.0291	281.403	-267.428	
-86.8763	284.434	-273.233	
-90.9021	285.147	-271.451	
-89.4731	285.172	-267.053	
-90.5926	288.151	-273.672	
-91.9619	291.043	-270.482	
-95.8839	289.636	-271.296	
-89.6737	289.179	-268.149	
-93.4873	288.905	-265.49	
-96.5847	286.39	-268.524	
-91.4541	286.943	-262.973	
-94.3476	284.195	-261.785	
-94.2967	280.787	-265.328	
-94.8392	284.466	-258.052	
-95.807	280.103	-256.963	
-100.537	280.336	-257.79	
-93.591	278.924	-259.798	
-97.196	276.908	-261.439	
-98.9141	280.864	-261.113	
-97.3913	273.187	-262.301	
-95.2262	274.037	-266.183	
-92.9498	277.474	-264.91	
-93.6569	270.779	-265.264	
-89.5863	271.668	-266.953	
-88.9478	275.122	-264.564	
-88.9474	268.501	-265.065	
-84.5935	269.84	-264.527	
-84.957	273.85	-261.721	
-84.0152	266.959	-262.079	
-80.7585	269.098	-260.017	
-83.0415	272.792	-257.797	
-81.2234	266.103	-257.711	
-79.9829	269.234	-254.488	
-83.8533	270.878	-254.806	
-79.9811	266.451	-251.949	
-81.173	269.356	-248.555	
-84.7504	269.952	-250.634	
-81.6317	266.29	-246.314	
-85.3325	268.44	-244.581	
-87.388	267.801	-248.209	
-85.7997	265.55	-242.184	
-90.2747	266.06	-242.333	
-90.6221	265.182	-246.455	
-90.1081	262.752	-240.473	
-94.3415	261.924	-242.184	
-92.7714	261.745	-246.094	
-94.2079	258.213	-241.788	
-98.0345	257.441	-243.655	
-95.3568	256.823	-247.509	
-97.5467	254.236	-241.724	
-98.5948	252.071	-245.762	
-94.6711	252.875	-247.169	
-98.8842	248.752	-243.825	
-95.4799	247.656	-246.759	
-92.2126	250.857	-245.055	
-94.9833	244.076	-245.3	
-90.6269	245.33	-245.119	
-90.927	248.97	-241.958	
-89.9464	241.952	-243.294	
-87.2516	244.764	-240.791	
-90.8027	246.315	-239.228	
-85.7974	241.846	-238.813	
-86.0849	244.123	-234.858	
-90.3156	245.371	-234.915	
-85.2734	240.738	-233.388	
-88.1301	241.326	-230.177	
-92.578	242.71	-231.988	
-160.904	-206.725	229.502	
