-234.385	217.174	-51.23	
-231.102	219.325	-51.19	
-233.451	213.864	-53.13	
-231.648	213.263	-48.99	
-230.764	208.773	-49.91	
-228.304	214.911	-49.46	
-226.31	211.955	-46.49	
-226.783	208.936	-49.31	
-223.398	214.159	-47.27	
-221.066	210.128	-47.95	
-222.604	208.165	-52.19	
-217.787	211.709	-49.11	
-216.063	207.636	-50.56	
-218.839	207.546	-54.47	
-212.864	209.42	-51.63	
-213.18	206.983	-55.53	
-216.803	208.734	-58.31	
-209.972	208.353	-57.16	
-211.141	207.184	-61.38	
-214.984	210.27	-61.87	
-208.881	205.342	-62.73	
-204.687	207.132	-63.16	
-204.464	206.789	-58.97	
-204.944	204.895	-65.7	
-201.069	202.689	-66.98	
-196.079	203.719	-65.95	
-203.1	202.073	-69.97	
-204.309	197.894	-68.9	
-200.922	196.472	-65.91	
-207.011	199.434	-66.61	
-206.947	196.104	-63.69	
-202.575	196.658	-61.68	
-209.276	198.442	-61.9	
-208.013	197.018	-57.87	
-203.326	198.593	-57.95	
-210.159	199.821	-56.33	
-206.209	201.226	-54.02	
-203.377	202.361	-57.09	
-207.3	204.519	-52.11	
-202.86	205.707	-51.31	
-200.193	206.817	-55.34	
-204.096	208.995	-49.66	
-200.526	210.868	-51.92	
-201.995	210.39	-56.71	
-200.936	213.712	-49.49	
-203.271	216.184	-52.01	
-205.977	213.054	-53.28	
-202.515	219.91	-51.26	
-204.99	220.122	-47.35	
-204.954	215.774	-47.01	
-204.531	223.552	-46.7	
-200.578	221.989	-47.83	
-201.412	218.892	-44.79	
-199.793	223.764	-50.45	
-198.082	222.222	-53.84	
-199.588	225.666	-57.06	
-196.59	218.765	-54.51	
-193.408	219.543	-57.8	
-192.474	224.436	-57.14	
-193.867	217.81	-60.93	
-191.393	214.911	-58.18	
-191.386	215.201	-53.53	
-190.799	211.262	-59.06	
-193.726	208.901	-59.9	
-197.055	210.238	-63.37	
-192.392	205.567	-60.13	
-193.414	204.687	-55.82	
-198.271	204.355	-56.47	
-192.14	201.153	-56.06	
-195.529	199.885	-53.32	
-198.383	200.708	-56.39	
-193.67	196.511	-53.61	
-197.666	194.495	-53.96	
-198.701	196.855	-57.4	
-195.899	191.171	-54.82	
-198.865	191.175	-58.67	
-198.391	194.902	-61.01	
-197.466	188.19	-60.84	
-199.805	189.811	-64.47	
-197.551	194.045	-65.49	
-198.17	186.779	-66.22	
-197.419	189.792	-69.65	
-194.982	192.371	-67.22	
-195.916	186.77	-71.07	
-192.597	189.382	-72.92	
-191.812	191.016	-69.08	
-190.797	186.232	-73.26	
-186.838	188.636	-72.89	
-187.141	189.746	-68.18	
-185.374	185.15	-73.1	
-182.284	186.968	-70.07	
-184.705	187.374	-65.83	
-180.41	183.609	-69.65	
-179.648	184.795	-65.37	
-183.857	184.404	-62.71	
-177.861	181.491	-65.76	
-179.614	180.728	-61.61	
-183.821	180.763	-61.94	
-177.676	177.574	-60.54	
-181.596	175.351	-59.55	
-184.193	176.573	-62.65	
-179.821	172.036	-59.72	
-183.365	170.33	-62.01	
-185.608	170.349	-58.47	
-183.607	173.482	-64.1	
-188.147	172.902	-63.01	
-188.26	173.637	-58.18	
-188.915	176.235	-64.72	
-192.503	176.466	-61.91	
-189.727	176.979	-58.63	
-193.437	179.633	-63.65	
-196.668	180.362	-60.42	
-198.407	175.652	-59.35	
-195.465	183.262	-58.36	
-192.944	181.964	-55.77	
-189.615	180.343	-58.83	
-192.593	185.851	-55.6	
-188.193	185.442	-54.96	
-187.583	183.931	-58.94	
-188.392	189.061	-54.57	
-184.365	189.128	-56.83	
-186.024	187.329	-60.34	
-184.935	192.802	-56.78	
-182.446	193.028	-60.7	
-185.189	190.709	-62.82	
-183.653	196.629	-60.76	
-183.51	196.206	-65.35	
-187.332	193.232	-66.45	
-184.845	199.821	-65.64	
-186.837	198.395	-69.59	
-190.347	195.592	-67.67	
-188.082	201.958	-69.92	
-191.369	200.227	-72.67	
-193.476	197.836	-68.92	
-192.124	203.714	-73.53	
-196.239	202.428	-71.88	
-194.716	200.698	-67.37	
-197.333	206.001	-72.31	
-200.125	207.027	-69.37	
-197.588	206.878	-65.12	
-202.361	209.316	-71.11	
-201.428	213.502	-70.27	
-203.665	214.235	-74.01	
-201.967	213.953	-66.62	
-204.874	212.319	-64.74	
-201.185	212.049	-62.32	
-208.478	212.109	-63.53	
-210.536	210.899	-66.89	
-214.006	213.369	-64.77	
-208.493	213.367	-69.1	
-212.226	215.291	-70.56	
-212.848	216.507	-66.51	
-209.898	217.478	-72.67	
-212.582	221.015	-71.76	
-212.562	220.753	-67.49	
-209.536	222.79	-73.11	
-211.192	226.225	-70.27	
-210.731	224.281	-65.81	
-208.109	228.601	-70.31	
-209.113	230.283	-66.14	
-208.094	226.635	-62.89	
-205.803	232.32	-66.41	
-205.358	232.341	-61.95	
-204.587	228.162	-62.13	
-202.445	234.547	-63.06	
-199.857	231.337	-61.34	
-201.313	228.042	-64.14	
-197.283	233.911	-62.37	
-194.638	230.757	-64.36	
-193.422	229.711	-60.42	
-197.799	229.435	-65.85	
-196.3	225.419	-64.07	
-196.102	226.465	-59.21	
-199.397	223.736	-65.42	
-200.189	221.105	-62.27	
-202.445	223.941	-58.91	
-200.274	217.626	-63.58	
-203.447	215.726	-60.84	
-200.473	214.457	-57.29	
-205.239	219.025	-60.59	
-204.566	218.708	-56.21	
-200.436	218.171	-57.39	
-207.36	219.025	-53.57	
-207.218	223.552	-54.01	
-205.924	223.714	-58.13	
-210.9	222.98	-53.62	
-212.213	226.334	-56.34	
-210.195	224.818	-59.76	
-215.447	224.515	-55.75	
-216.965	225.967	-59.83	
-213.891	223.808	-63.01	
-219.992	223.647	-59.59	
-220.459	223.463	-63.97	
-216.478	220.938	-65.37	
-222.961	220.819	-62.86	
-221.578	218.808	-66.84	
-218.052	217.667	-64.91	
-224.203	216.183	-66.27	
-221.729	213	-68.48	
-218.939	213.386	-65.45	
-224.3	210.429	-67.3	
-220.761	207.604	-66.61	
-219.476	209.879	-63.3	
-223.227	204.856	-65.6	
-220.25	203.166	-62.66	
-220.149	206.66	-60.22	
-223.311	201.236	-61.62	
-221.324	200.818	-57.45	
-221.798	205.011	-56.88	
-224.457	200.09	-55.58	
-222.618	200.09	-51.65	
-224.047	204.601	-51.63	
-225.793	198.188	-50.95	
-226.394	201.122	-47.32	
-227.646	204.113	-49.99	
-229.209	198.874	-45.99	
-231.542	202.763	-46.59	
-231.047	202.975	-51.44	
-234.901	201.243	-45.47	
-236.421	203.116	-49.35	
-233.755	200.55	-52.52	
-239.752	201.342	-48.63	
-239.433	200.528	-53.19	
-236.421	197.884	-52.18	
-242.955	198.987	-53.36	
-241.512	195.621	-56.05	
-238.111	194.073	-53.74	
-244.984	194.271	-55.28	
-243.393	190.205	-54.91	
-239.504	190.134	-51.81	
-248.308	181.189	59.58	
-249.764	182.702	56.29	
-246.801	177.745	58.62	
-243.669	180.737	57.17	
-240.593	177.307	56.36	
-244.928	181.458	53.74	
-240.692	182.158	52.11	
-240.006	178.035	52.41	
-242.679	182.999	49.09	
-239.73	180.15	46.8	
-240.833	175.511	48.02	
-241.399	180.319	43.39	
-238.967	176.812	41.72	
-241.435	173.496	44.1	
-240.812	177.229	38.38	
-241.194	172.605	38.38	
-244.588	171.332	41.73	
-243.047	172.308	35.04	
-244.751	168.199	35.86	
-247.813	169.522	39.56	
-243.98	166.142	33.6	
-245.302	167.082	29.28	
-242.481	170.186	29.45	
-245.126	163.724	29.42	
-243.803	161.51	25.5	
-243.655	163.214	20.6	
-245.331	158.71	27.32	
-241.442	156.942	28.72	
-238.224	158.604	25.6	
-241.498	159.573	31.57	
-237.086	159.884	31.82	
-235.962	161.998	27.62	
-238.04	162.606	34.25	
-234.378	164.996	33.35	
-235.283	166.071	28.64	
-235.82	167.796	35.53	
-235.226	170.653	31.79	
-237.793	169.076	28.67	
-236.81	174.16	32.93	
-236.86	175.667	28.51	
-240.034	173.34	25.48	
-238.564	178.912	29.78	
-241.152	178.445	25.99	
-243.761	174.281	27.05	
-242.007	182.115	26.52	
-245.698	181.536	28.58	
-244.129	178.438	31.27	
-248.095	184.371	27.77	
-246.094	187.504	30.55	
-242.417	185.099	30.68	
-248.407	190.141	30.04	
-247.544	188.458	26.11	
-243.337	188.988	27.25	
-250.464	187.518	25	
-251.178	183.975	23.09	
-255.959	183.438	24.2	
-248.753	181.451	21.63	
-251.072	179.414	18.17	
-254.537	183.02	17.14	
-251.631	175.886	18.38	
-247.445	176.395	16.23	
-244.942	180.312	16.64	
-245.076	173.531	15.67	
-244.008	171.346	18.64	
-247.395	169.232	21.61	
-241.293	169.112	17.33	
-238.125	171.997	18.74	
-238.641	171.056	23.56	
-235.339	169.691	17.55	
-232.956	170.943	21.21	
-235.636	168.829	23.78	
-230.326	168.765	19.47	
-229.223	167.04	23.48	
-233.253	165.696	24.14	
-227.002	164.452	21.75	
-229.513	161.234	24.32	
-233.868	161.687	23.54	
-228.332	157.748	22.84	
-232.009	155.769	24.81	
-235.799	157.635	22.35	
-230.595	152.657	23.15	
-234.986	151.802	22.04	
-235.353	155.394	19.69	
-233.345	148.917	20.51	
-236.301	149.214	16.97	
-235.134	153.209	16.43	
-233.791	147.057	15.19	
-235.212	149.03	11.24	
-233.239	153.407	11.9	
-232.468	146.824	9.88001	
-231.889	150.515	7.00601	
-229.817	154.001	9.75301	
-228.763	148.832	5.26901	
-227.109	153.032	4.83901	
-225.475	154.665	9.27701	
-224.556	150.776	3.10101	
-221.558	153.492	5.22701	
-222.123	153.067	9.38501	
-218.277	152.53	3.44701	
-216.205	151.773	7.53301	
-219.21	149.9	9.80301	
-213.575	149.737	5.82701	
-213.822	146.661	9.21601	
-211.913	149.419	11.75	
-217.647	146.937	9.23001	
-216.898	147.262	13.85	
-214.522	151.476	14.37	
-220.568	147.835	14.33	
-219.345	150.048	18.17	
-217.57	153.096	15.67	
-222.965	150.529	18.85	
-221.826	153.364	22.31	
-217.64	151.328	24.32	
-222.845	156.872	21.24	
-219.974	158.187	18.94	
-220.342	154.991	15.44	
-222.951	160.725	18.48	
-221.911	161.199	14.18	
-223.092	157.19	13.27	
-224.605	163.738	14.34	
-225.723	162.196	10.11	
-226.486	158.18	11.51	
-228.615	164.395	10.58	
-231.005	161.581	7.77401	
-230.672	158.378	10.41	
-233.925	163.61	8.82701	
-236.379	159.743	8.34001	
-234.986	156.893	12.12	
-239.539	161.673	9.50601	
-240.954	157.572	11.26	
-237.8	157.19	14.94	
-244.065	159.41	12.33	
-244.609	156.037	15.4	
-240.558	157.402	17.88	
-247.989	157.466	16.03	
-246.264	157.777	20.3	
-242.014	160.329	19.2	
-249.439	159.552	21.24	
-248.647	162.323	24.24	
-245.797	165.739	22.09	
-251.695	162.246	26.24	
-254.41	165.47	25.26	
-257.443	162.861	27.17	
-252.642	168.652	26.08	
-250.443	169.013	29.22	
-248.499	170.957	25.76	
-249.8	169.656	32.89	
-250.959	166.092	34.67	
-251.9	169.112	38.26	
-254.17	165.993	32.44	
-256.864	165.845	35.95	
-255.386	169.727	36.87	
-259.664	165.59	33.36	
-262.146	168.341	36.05	
-259.346	171.565	36.36	
-264.126	168.482	32.87	
-265.236	172.746	34.59	
-261	175.143	34.61	
-266.933	174.302	31.5	
-265.787	178.559	32.75	
-260.852	178.969	32.13	
-267.378	179.796	29.43	
-264.656	183.367	29.34	
-261.382	180.701	28.65	
-266.876	183.975	26.3	
-263.1	183.508	23.98	
-262.294	179.223	25.26	
-265.512	184.35	21.18	
-264.048	181.005	18.52	
-260.774	183.572	17.65	
-264.104	178.827	21.56	
-259.77	177.929	20.32	
-257.67	182.434	20.55	
-259.48	175.674	23.38	
-255.541	176.501	24.52	
-255.916	180.793	26.94	
-253.583	173.368	24.55	
-250.627	174.203	28	
-247.282	176.416	25.4	
-253.279	176.36	29.72	
-250.295	179.626	29.46	
-250.316	178.615	25.26	
-249.142	181.769	32.41	
-252.975	184.159	32.11	
-255.577	181.132	30.5	
-252.593	183.975	35.83	
-256.998	183.812	36.8	
-257.712	180.27	34.55	
-255.421	182.985	40.13	
-259.14	180.539	41.26	
-259.126	176.876	37.98	
-257.387	179.181	44.38	
-259.89	175.546	44.43	
-258.483	173.135	40.45	
-257.33	174.712	47.12	
-258.073	170.434	45.48	
-255.761	171.473	42.15	
-255.831	169.14	48.23	
-254.445	165.576	45.66	
-252.755	168.397	43.14	
-251.921	164.848	48.39	
-248.972	163.837	44.98	
-248.711	167.917	43.97	
-246.398	162.875	47.62	
-243.011	164.282	44.96	
-244.312	168.355	44.93	
-241.095	163.794	48.12	
-238.097	166.934	46.56	
-241.074	169.897	46.91	
-236.633	167.832	49.85	
-234.13	171.042	48.35	
-237.8	173.736	49.63	
-232.454	170.314	51.61	
-232.56	174.875	52.4	
-236.697	174.556	53.39	
-230.184	174.422	55.39	
-233.876	176.246	57.58	
-236.902	172.513	56.69	
-232.242	176.041	61.08	
-236.131	173.991	62.16	
-235.82	170.059	59.35	
-234.547	173.312	65.63	
-236.647	169.232	64.95	
-233.663	168.539	62.07	
-235.778	167.98	68.49	
-234.639	163.886	66.92	
-231.747	164.94	63.76	
-233.338	163.49	70.45	
-229.781	161.39	69.04	
-227.582	164.013	65.42	
-179.4	272.3	35.49	
-180.227	270.341	32.2	
-177.873	269.726	37.94	
-174.408	270.645	35.07	
-171.396	268.425	37.77	
-175.073	268.142	32.32	
-170.618	267.788	31.39	
-170.13	265.731	34.98	
-172.074	265.625	28.72	
-168.772	262.421	30.14	
-170.271	260.64	34.47	
-169.889	259.607	27.83	
-167.309	256.531	30.04	
-170.201	256.185	33.8	
-168.546	253.88	27.61	
-169.041	251.122	31.32	
-172.994	252.685	33.87	
-170.3	248.025	29.43	
-172.23	246.094	33.05	
-175.808	249.446	33.71	
-171.169	243.195	33.53	
-171.714	240.105	30.16	
-168.871	242.382	28.05	
-171.601	238.238	33.01	
-169.755	234.003	32.72	
-168.723	231.075	28.58	
-171.65	233.663	35.87	
-168.108	234.236	38.58	
-164.332	233.062	35.87	
-168.553	238.033	38.05	
-164.226	238.967	38.51	
-162.316	236.916	34.52	
-165.491	242.368	37.54	
-161.673	243.499	35.55	
-161.729	240.19	31.84	
-163.405	246.717	34.31	
-162.133	245.444	29.9	
-164.098	241.64	29.12	
-163.688	248.131	27.54	
-162.974	245.451	23.75	
-165.611	241.258	23.59	
-164.791	248.159	21.62	
-166.722	244.532	19.53	
-169.592	242.651	23.2	
-167.521	246.985	16.77	
-171.495	247.82	17.97	
-170.59	248.442	22.15	
-173.63	248.513	14.86	
-172.032	252.798	14.16	
-168.574	252.013	16.61	
-174.146	253.653	11.46	
-172.753	249.672	10.65	
-168.687	251.334	11.43	
-175.426	247.848	10.46	
-175.886	244.136	12.16	
-180.821	244.15	12.64	
-173.291	241.781	13.72	
-175.108	237.56	13.08	
-178.148	238.337	9.19201	
-175.773	235.622	16.04	
-171.311	234.71	14.9	
-168.73	237.574	12.29	
-168.914	232.864	17.24	
-168.39	234.095	20.85	
-172.308	234.844	23.84	
-165.668	232.15	22.22	
-162.642	235.318	21.11	
-163.95	238.535	24.54	
-159.785	233.366	22.63	
-157.975	237.298	23.99	
-161.213	237.878	26.79	
-155.196	234.986	25.09	
-154.835	237.326	28.88	
-158.958	236.598	29.86	
-152.459	234.752	30.31	
-155.422	234.618	34.08	
-159.573	233.72	32.75	
-154.192	231.606	36.21	
-158.173	231.585	38.51	
-161.411	230.184	35.12	
-156.525	228.565	40.3	
-160.711	226.642	39.81	
-160.563	226.79	35.51	
-158.901	223.927	41.5	
-161.213	220.907	38.89	
-159.884	222.944	35.43	
-158.512	218.517	39.93	
-159.17	216.304	35.91	
-157.246	219.642	32.95	
-156.348	214.317	37.27	
-155.104	214.147	32.74	
-153.435	218.644	31.71	
-151.83	212.189	33.45	
-149.97	214.473	30.03	
-149.079	219.182	31.39	
-147.255	212.097	31.19	
-144.596	215.745	30.53	
-145.834	218.751	33.19	
-141.082	214.169	30.74	
-139.795	217.294	33.91	
-143.154	217.612	36.34	
-136.868	214.989	34.97	
-137.872	215.965	39.32	
-136.288	219.811	38.79	
-141.598	215.632	38.63	
-141.662	219.67	41.11	
-139.335	222.845	38.21	
-145.353	219.938	40.44	
-144.688	224.422	40.96	
-142.44	224.407	37.28	
-148.386	224.825	40.5	
-147.771	229.4	40.28	
-144.016	230.326	43.64	
-148.45	230.418	36.72	
-145.226	229.682	34.66	
-145.098	225.001	35.26	
-148.005	230.439	31.99	
-146.244	227.391	29.29	
-147.347	224.167	31.92	
-148.825	228.629	26.99	
-149.192	224.16	25.73	
-150.409	222.944	29.66	
-152.106	225.489	23.81	
-154.043	221.289	24.24	
-154.284	221.614	28.39	
-157.126	223.014	22.79	
-159.53	220.045	25.37	
-158.837	221.586	30.03	
-162.79	221.735	24.11	
-164.629	220.603	28.23	
-162.104	223.693	31.03	
-167.775	222.123	26.97	
-168.9	222.555	31.42	
-165.329	225.843	32.17	
-172.329	223.509	30.19	
-171.346	227.321	32.56	
-166.941	228.473	30.36	
-174.599	228.735	31.26	
-174.281	232.871	30.76	
-170.993	233.473	27.12	
-177.611	234.066	31.6	
-180.008	234.781	28.06	
-183.431	234.47	30.9	
-178.283	237.496	26.2	
-176.671	240.522	27.94	
-174.118	239.115	24.64	
-176.649	243.938	29.58	
-178.247	243.188	33.3	
-179.683	247.692	32.75	
-180.97	240.89	31.74	
-184.215	243.301	33.55	
-182.851	246.505	31.06	
-186.528	240.706	31.93	
-189.399	244.199	30.9	
-186.542	246.632	28.81	
-190.834	241.491	28.71	
-192.064	245.21	26.11	
-187.786	247.084	24.69	
-193.167	243.4	22.84	
-192.107	247.007	20.24	
-187.115	247.332	20.16	
-193.026	244.815	17.17	
-190.247	247.169	14.56	
-186.98	245.486	16.75	
-191.902	244.807	12.05	
-187.786	243.125	11.58	
-187.313	241.76	15.92	
-189.688	241.081	9.00801	
-187.907	237.206	10.4	
-184.378	238.33	8.25601	
-188.564	238.387	13.87	
-184.067	237.369	14.49	
-181.889	240.395	11.2	
-184.406	238.585	18.07	
-180.694	240.459	18.51	
-181.302	244.8	16.36	
-178.849	238.91	21.36	
-176.508	242.523	22.97	
-172.683	242.106	20.12	
-179.308	244.815	21.9	
-176.26	246.872	19.4	
-175.575	242.891	17.88	
-175.589	250.655	19.49	
-179.202	251.285	16.88	
-181.571	247.926	18.16	
-179.485	254.254	19.21	
-183.996	254.41	19.37	
-184.421	250.45	20.88	
-183.035	256.786	22.1	
-186.966	255.824	24.25	
-186.499	251.058	25.4	
-185.849	257.79	27.34	
-188.394	255.386	30.02	
-186.422	250.995	29.92	
-186.372	257.408	32.54	
-186.91	253.477	35.03	
-184.025	251.695	32.61	
-185.262	255.266	37.89	
-183.565	251.306	39.51	
-181.366	251.101	36.03	
-181.514	253.356	42	
-178.092	250.415	41.26	
-177.526	251.97	37.37	
-176.048	252.317	43.87	
-172.195	251.362	41.59	
-173.376	253.576	38.13	
-170.837	253.851	44.05	
-167.598	254.827	40.94	
-170.491	256.461	38.37	
-166.665	258.165	42.27	
-163.858	259.133	39.12	
-167.556	261.234	37.21	
-162.741	261.523	41.81	
-162.868	264.79	38.48	
-167.132	264.91	38.79	
-161.1	267.265	40.83	
-164.989	269.599	40.16	
-167.959	266.346	42.28	
-164.035	272.533	42.5	
-168.1	271.72	44.29	
-167.408	267.18	45.93	
-167.181	274.336	46.98	
-169.232	271.154	49.67	
-165.809	268.778	48.97	
-169.006	273.36	52.79	
-167.712	269.846	55.4	
-164.317	268.29	53.11	
-167.054	272.625	57.89	
-163.412	270.751	59.22	
-160.485	269.577	55.33	
-282.949	298.293	-61.28	
-282.216	296.197	-64.51	
-282.382	295.89	-58.26	
-278.197	297.105	-59.52	
-276.359	295.125	-55.69	
-277.532	294.517	-62.17	
-272.979	294.404	-61.14	
-273.905	292.488	-57.56	
-273.056	292.063	-64.04	
-270.511	289.235	-61.24	
-273.487	287.39	-57.79	
-270.369	286.265	-63.62	
-268.764	283.486	-60.37	
-272.926	283.001	-58.14	
-268.657	280.624	-62.93	
-270.487	277.945	-59.62	
-275.179	279.193	-59.01	
-270.697	274.765	-61.69	
-273.824	272.769	-59.08	
-277.556	275.825	-60.14	
-272.835	269.94	-58.03	
-271.696	266.695	-61.14	
-268.395	269.148	-62.03	
-272.714	264.97	-58.42	
-270.61	260.852	-57.68	
-267.757	257.906	-60.84	
-273.588	260.419	-55.56	
-271.6	261.417	-51.68	
-266.995	260.507	-52.53	
-271.997	265.121	-52.56	
-268.314	266.4	-50.41	
-264.863	264.478	-53.16	
-269.287	269.67	-52.02	
-265.068	271.06	-52.3	
-263.368	267.669	-55.54	
-266.301	274.07	-54.32	
-263.217	272.77	-57.74	
-264.541	268.901	-59.07	
-263.901	275.338	-60.7	
-261.512	272.636	-63.71	
-263.541	268.203	-64.69	
-262.43	275.113	-66.53	
-263.042	271.248	-69.01	
-267.119	269.292	-66.75	
-262.822	273.589	-71.99	
-266.96	274.118	-72.59	
-267.885	274.89	-68.43	
-267.732	274.619	-76.35	
-266.214	278.965	-76.57	
-264.005	278.487	-72.86	
-267.047	279.547	-79.93	
-265.157	275.639	-79.86	
-261.962	277.702	-77.59	
-267.436	273.643	-81.03	
-268.31	269.94	-79.48	
-273.027	269.607	-81.07	
-266.519	267.912	-76.86	
-267.56	263.477	-77.94	
-268.794	263.94	-82.79	
-269.303	261.593	-75.41	
-264.68	260.983	-74.57	
-261.492	264.03	-76.05	
-263.399	259.436	-71.35	
-264.473	260.766	-67.93	
-269.324	261.289	-66.87	
-262.455	259.107	-65.44	
-259.407	262.438	-65.38	
-262.266	265.66	-63	
-257.363	260.805	-62.71	
-256.528	264.892	-60.97	
-260.668	265.278	-59.77	
-254.325	262.853	-58.69	
-255.771	265.367	-55.24	
-259.828	264.28	-56	
-253.951	262.944	-52.79	
-258.268	262.728	-50.59	
-261.394	261.441	-53.44	
-257.778	259.824	-47.95	
-262.327	259.517	-47.5	
-263.778	257.784	-51.85	
-261.432	256.736	-45.04	
-264.937	254.503	-47.1	
-262.967	254.494	-50.95	
-263.797	251.966	-44.67	
-264.571	248.647	-47.8	
-262.08	250.714	-50.53	
-262.429	246.547	-45.63	
-261.234	244.206	-49.43	
-258.435	247.57	-51.51	
-259.056	242.425	-46.9	
-256.077	242.292	-50.52	
-254.442	246.896	-51.01	
-253.32	240.665	-48.42	
-250.317	242.96	-50.88	
-250.42	247.807	-49.56	
-248.186	240.849	-48.57	
-245.744	244.705	-48.29	
-248.159	247.664	-46.56	
-242.519	243.404	-46.55	
-242.811	246.649	-43.31	
-246.989	246.854	-42.54	
-240.527	244.689	-41.05	
-243.25	245.644	-37.54	
-241.843	249.596	-37.59	
-246.388	245.051	-39.69	
-247.632	249.039	-37.66	
-244.579	252.376	-39.52	
-250.758	249.025	-39.82	
-250.708	253.601	-39.35	
-247.12	253.653	-41.76	
-253.881	253.68	-41.3	
-253.527	258.276	-41.5	
-251.535	259.562	-36.96	
-252.767	259.179	-45.08	
-248.919	258.643	-45.59	
-248.681	253.931	-44.71	
-250.342	259.058	-49.19	
-247.468	256.134	-50.76	
-249.318	252.869	-48.63	
-248.919	257.086	-53.98	
-248.47	252.586	-55.04	
-251.108	251.363	-51.87	
-250.401	253.624	-58.06	
-252.056	249.283	-58.23	
-254.03	249.713	-54.55	
-254.328	250.688	-60.88	
-257.407	247.608	-59.38	
-258.882	249.387	-54.95	
-259.961	249.014	-61.94	
-263.263	247.834	-58.89	
-262.324	251.177	-55.5	
-265.71	249.064	-61.42	
-268.623	249.545	-57.87	
-265.893	253.123	-55.9	
-271.267	250.153	-60.44	
-271.578	254.085	-58.1	
-266.741	255.528	-58.35	
-274.039	255.159	-60.69	
-273.841	259.317	-61.25	
-269.39	260.092	-63.24	
-277.292	260.251	-61.91	
-278.084	260.731	-66.18	
-282.312	260.18	-64.97	
-275.889	263.492	-67.31	
-275.362	266.706	-65.23	
-271.565	265.412	-67.09	
-276.196	270.115	-63.92	
-279.123	269.309	-61.14	
-280.528	273.702	-62.5	
-280.885	266.839	-63.58	
-284.688	268.976	-63.4	
-282.599	272.197	-65.27	
-285.947	266.162	-65.68	
-288.365	269.401	-67.98	
-285.062	271.997	-68.85	
-288.563	266.516	-70.41	
-288.846	270.051	-73.48	
-284.519	272.257	-73.14	
-288.401	268.092	-76.82	
-286.605	271.727	-78.96	
-282.061	272.452	-77.01	
-286.074	269.429	-82.02	
-282.522	271.85	-83.37	
-280.353	270.483	-79.94	
-282.895	269.355	-86.19	
-278.869	268.008	-84.85	
-280.116	266.76	-80.63	
-279.338	265.7	-87.84	
-278.063	262.026	-85.61	
-274.034	263.368	-86.2	
-280.142	263.199	-82.8	
-276.243	262.572	-80.32	
-273.114	265.701	-82.61	
-278.098	263.829	-77.27	
-275.048	266.03	-75.46	
-275.026	270.294	-77.93	
-274.495	264.744	-72.02	
-273.237	268.548	-69.8	
-268.583	268.394	-70.8	
-275.539	270.63	-72.05	
-271.879	272.876	-73.2	
-270.341	268.899	-74.07	
-271.495	276.654	-73.04	
-273.754	276.941	-76.96	
-276.174	273.389	-76.56	
-275.159	279.92	-75.1	
-279.326	279.712	-76.82	
-280.05	275.736	-75.4	
-279.754	282.254	-74.09	
-284.129	280.991	-73.7	
-283.863	276.307	-72.19	
-284.529	283.136	-70.53	
-287.854	280.66	-69.01	
-285.656	276.352	-68.02	
-287.112	282.816	-65.99	
-288.418	278.964	-63.75	
-284.67	277.339	-64.64	
-288.25	280.971	-60.55	
-287.099	277.172	-58.15	
-283.587	277.008	-60.39	
-286.388	279.439	-55.17	
-282.74	276.723	-54.26	
-280.765	278.273	-57.66	
-282.128	278.891	-51.14	
-277.682	278.246	-51.61	
-277.403	280.221	-55.34	
-277.597	280.876	-48.94	
-273.377	281.984	-50.47	
-275.034	283.297	-54.1	
-273.318	285.438	-49.08	
-269.521	286.548	-50.83	
-272.264	288.33	-54.24	
-269.79	289.108	-48.07	
-268.743	292.276	-51.35	
-272.696	292	-52.81	
-268.234	294.906	-48.6	
-271.628	296.886	-50.96	
-275.022	293.492	-50.08	
-271.939	299.969	-48.59	
-276.302	298.859	-48.59	
-276.132	294.503	-46.58	
-276.776	301.638	-45.91	
-279.519	298.328	-44.13	
-276.04	296.292	-43.24	
-280.82	300.704	-41.34	
-280.495	297.353	-38.24	
-276.33	296.002	-38.82	
-281.117	300.266	-35.85	
-278.19	298.668	-33.03	
-273.848	297.635	-35.31	
-337.134	225.157	35.58	
-335.748	228.806	35.61	
-334.292	222.908	34.08	
-332.948	223.686	38.38	
-329.597	220.532	37.97	
-331.11	226.939	37.96	
-328.133	225.815	41.34	
-326.45	222.972	38.82	
-326.952	229.258	40.52	
-322.66	227.328	40.42	
-322.271	224.605	36.31	
-320.786	230.474	39.32	
-316.946	228.091	38.4	
-318.658	226.239	34.35	
-315.242	231.351	37.36	
-313.609	229.025	33.72	
-317.265	228.198	30.55	
-311.608	231.874	32.17	
-311.417	230.085	28.03	
-316.253	230.34	26.97	
-308.426	229.824	27.01	
-305.951	233.713	26.68	
-306.057	233.748	30.89	
-304.636	231.634	24.36	
-300.032	231.995	23.57	
-296.759	235.834	24.81	
-301.086	230.234	20.53	
-299.764	226.182	21.94	
-296.447	227.094	25.28	
-303.094	225.963	23.88	
-301.404	223.41	27.14	
-298.434	226.522	29.36	
-304.876	224.04	28.52	
-303.434	223.785	32.75	
-300.556	227.794	32.81	
-306.976	224.909	33.85	
-304.862	228.438	36.25	
-302.868	230.856	33.27	
-307.825	230.566	37.74	
-304.961	234.137	38.71	
-302.981	236.4	34.76	
-308.023	236.167	39.92	
-305.951	239.653	37.72	
-306.375	238.238	32.92	
-308.242	241.887	39.82	
-311.268	242.396	36.91	
-311.58	238.267	35.79	
-312.859	245.896	37.32	
-315.391	244.779	41.03	
-312.93	241.3	41.8	
-317.081	247.898	41.34	
-312.958	248.909	40.63	
-312.145	246.045	43.92	
-312.93	250.634	37.91	
-310.342	250.252	34.8	
-313.128	251.992	31.16	
-307.068	248.293	34.59	
-304.586	250.634	31.45	
-306.686	255.181	31.67	
-303.582	248.81	28.5	
-300.174	247.975	31.69	
-300.867	248.414	36.26	
-297.473	245.302	31.22	
-298.526	241.703	30.43	
-301.553	240.657	26.64	
-295.415	239.723	30.64	
-296.228	238.627	34.94	
-299.926	235.495	34.01	
-293.138	236.485	35.14	
-295.465	233.593	37.78	
-297.897	232.433	34.46	
-292.042	231.924	37.95	
-294.064	227.922	37.55	
-295.868	229.088	33.82	
-290.656	226.239	37.15	
-292.565	224.33	33.15	
-294.043	227.519	30.47	
-289.475	222.611	31.38	
-291.922	222.428	27.47	
-292.353	227.087	26.17	
-288.698	220.844	26.14	
-289.412	223.524	22.48	
-289.15	227.179	24.78	
-286.35	221.918	21.47	
-284.936	225.878	19.58	
-285.643	227.858	23.28	
-281.542	224.323	19.69	
-279.802	228.608	20.06	
-281.23	229.583	24.61	
-276.585	226.592	20.3	
-275.517	230.064	23.32	
-278.133	229.145	27.33	
-272.081	228.41	24.2	
-272.611	230.001	28.38	
-276.104	227.356	30.79	
-269.188	228.332	28.45	
-270.638	226.882	32.53	
-274.046	224.464	31.93	
-267.35	225.503	34.04	
-269.408	221.466	35	
-271.875	220.837	31.63	
-266.006	219.776	35.29	
-267.682	216.262	32.96	
-269.924	215.151	36.33	
-269.478	218.567	30.54	
-272.95	215.519	31.39	
-274.032	216.276	36.1	
-275.27	217.725	29.31	
-278.628	215.922	31.84	
-277.03	218.086	35.22	
-281.033	217.902	29.73	
-284.427	216.771	32.65	
-283.288	211.969	34.08	
-285.381	219.917	34.47	
-282.779	220.398	37.35	
-278.869	220.914	34.69	
-284.752	223.799	37.14	
-281.061	226.076	38.1	
-279.201	224.966	34.35	
-283.352	228.876	38.1	
-279.88	231.217	36.12	
-279.788	228.622	32.7	
-282.461	233.869	35.75	
-280.156	235.325	31.99	
-280.799	231.712	29.95	
-283.09	237.482	31.49	
-282.27	237.029	26.98	
-283.543	232.362	25.96	
-285.353	239.179	26.24	
-285.827	236.725	22.33	
-287.149	232.433	24.31	
-288.782	238.861	21.56	
-290.119	235.403	18.81	
-290.854	232.405	22.63	
-292.7	237.772	17.54	
-295.486	234.42	19.05	
-293.711	234.074	23.8	
-298.35	236.647	18.18	
-301.539	236.004	20.82	
-299.87	237.531	25.21	
-304.459	236.478	18.71	
-306.163	240.43	19.18	
-308.016	239.568	15.24	
-307.231	240.636	22.72	
-308.97	237.765	24.56	
-306.085	239.801	27.23	
-311.884	235.558	25.56	
-312.414	233.19	22.21	
-316.954	233.317	23.84	
-312.004	236.287	19.89	
-315.942	235.601	18.01	
-317.632	236.457	21.87	
-315.03	238.634	15.84	
-319.428	240.034	16.2	
-319.633	239.971	20.48	
-317.837	243.181	14.88	
-321.394	245.14	17.25	
-320.418	243.994	21.9	
-320.263	248.817	17.15	
-322.497	249.835	21.06	
-319.93	247.593	24.73	
-321.041	253.413	20.79	
-321.14	253.88	25.26	
-318.042	250.896	25.55	
-319.959	257.323	24.11	
-316.197	256.277	26.31	
-315.165	252.642	23.77	
-315.37	259.791	25.2	
-311.254	258.674	23.71	
-310.08	258.716	27.8	
-312.909	255.746	22.16	
-309.564	253.434	24.44	
-310.554	254.566	29.16	
-310.986	250.174	23.07	
-310.469	247.721	26.41	
-314.274	248.866	29.32	
-308.334	244.765	25.47	
-310.151	241.534	28.18	
-307.443	242.403	32.02	
-313.496	243.139	27.97	
-313.298	243.478	32.39	
-309.522	245.416	31.54	
-316.041	242.29	34.8	
-318.431	245.981	33.91	
-317.116	246.731	29.89	
-321.147	243.407	34.12	
-323.834	245.246	31	
-320.942	245.027	27.88	
-325.474	241.908	31.56	
-327.072	242.007	27.26	
-323.035	241.944	24.52	
-328.274	238.401	27.54	
-328.027	237.8	23.19	
-323.197	237.963	22.31	
-328.649	234.208	24.4	
-325.969	233.211	20.74	
-322.646	234.413	23	
-326.655	229.555	21.4	
-322.61	228.367	19.7	
-320.871	230.39	22.85	
-323.332	224.818	20.96	
-318.877	224.605	22.17	
-319.549	227.328	25.29	
-319.414	220.957	23.29	
-316.374	221.452	26.58	
-318.559	224.499	28.65	
-317.83	218.157	27.61	
-316.522	219.182	31.91	
-319.308	222.336	32.03	
-318.842	216.863	33.65	
-317.76	218.086	37.66	
-321.536	220.957	37.14	
-319.294	214.713	38.36	
-321.868	216.947	41.62	
-324.378	218.538	38.58	
-323.013	213.539	42.99	
-327.143	215.349	41.84	
-326.344	215.583	37.03	
-329.137	212.224	42.89	
-330.876	212.606	38.75	
-326.987	211.969	36.04	
-332.75	209.318	39.43	
-331.485	208.604	35.01	
-327.595	208.25	36.48	
-333.479	205.337	34.77	
-330.028	203.272	32.53	
-326.641	204.113	35.21	
-332.121	200.189	33.22	
-328.55	197.82	34.11	
-325.736	200.21	37.44	
-221.43	294.475	0.84671	
-223.686	297.593	1.16801	
-220.186	293.598	4.43901	
-224.471	292	4.34001	
-223.856	289.787	8.38101	
-226.359	295.062	5.32501	
-229.605	292.523	7.41701	
-226.918	291.674	10.41	
-231.097	295.981	7.84301	
-231.662	294.708	12.37	
-227.264	294.722	14.52	
-232.985	298.053	13.62	
-232.511	296.829	18.02	
-227.766	297.331	18.05	
-233.89	300.259	19.04	
-230.51	300.386	22.19	
-226.218	301.143	19.86	
-231.358	303.78	23.67	
-227.257	304.487	25.49	
-224.796	304.968	21.24	
-227.483	305.11	28.58	
-229.994	308.68	29.99	
-233.267	306.396	28.71	
-227.596	308.249	32.39	
-228.876	309.373	36.74	
-232.914	312.124	38.5	
-225.178	309.395	37.11	
-224.853	305.336	38.98	
-229.173	304.551	40.86	
-225.051	303.865	35.41	
-227.08	300.139	36.72	
-231.429	301.73	38.09	
-227.158	299.637	32.95	
-230.948	297.261	33.18	
-234.031	300.824	34.81	
-231.04	297.31	29.34	
-235.424	299.149	29.7	
-234.993	302.974	31.74	
-236.591	299.962	26	
-240.133	302.642	27.47	
-238.804	306.799	29.8	
-240.904	303.427	23.78	
-241.597	307.683	25.39	
-236.973	309.055	26.75	
-243.471	308.214	22.18	
-240.339	310.073	20.01	
-237.333	307.139	21.14	
-241.732	312.64	17.53	
-243.245	309.571	14.43	
-243.061	306.361	17.39	
-244.362	311.848	12.01	
-245.804	313.376	15.8	
-247.289	309.204	16.37	
-244.454	316.282	16.08	
-242.771	317.823	19.46	
-239.667	321.069	17.39	
-242.835	316.487	23.06	
-242.382	320.334	25.64	
-244.023	323.926	22.47	
-239.547	320.482	27.85	
-242.955	318.347	30.3	
-246.526	316.19	28.26	
-242.318	316.579	33.6	
-239.532	313.849	33.82	
-234.887	314.818	32.28	
-239.914	312.336	37.13	
-242.516	309.027	35.49	
-238.854	306.609	33.1	
-242.785	307.344	38.84	
-242.587	303.299	36.68	
-238.507	303.985	35.6	
-243.231	302.09	40.23	
-240.254	298.845	39.47	
-237.149	301.666	38.53	
-240.381	297.869	43.19	
-235.573	298.293	43.02	
-234.406	302.288	41.56	
-234.448	298.003	46.79	
-230.382	299.806	45.69	
-231.436	304.409	44.4	
-229.689	299.368	49.45	
-227.844	303.618	49.05	
-231.549	305.428	47.77	
-227.37	302.96	52.63	
-228.296	307.408	53.44	
-231.938	307.019	51.29	
-228.933	306.347	56.94	
-231.924	309.861	57.35	
-235.438	308.044	54.56	
-232.355	308.299	60.75	
-236.753	309.557	60.09	
-238.564	306.474	56.75	
-238.005	308.023	63.41	
-241.838	307.019	61.35	
-241.208	303.264	58.12	
-242.41	305.88	64.93	
-244.397	302.338	62.83	
-241.526	300.4	60.47	
-246.151	300.584	65.83	
-244.235	296.561	64.69	
-240.324	297.642	63.53	
-244.871	295.217	68.18	
-240.742	293.407	68.21	
-242.014	290.437	65.51	
-239.207	296.497	66.58	
-237.192	293.28	63.93	
-240.897	291.271	61.45	
-235.707	296.037	61.83	
-235.587	292.905	58.42	
-239.95	293.067	58.41	
-233.967	295.514	56.32	
-234.554	292.806	52.67	
-233.777	288.068	54.53	
-237.121	294.34	50.46	
-240.6	293.407	51.91	
-240.176	295.528	56.17	
-241.336	296.207	49.3	
-244.602	297.89	51.9	
-241.781	299.156	54.88	
-245.09	300.089	49	
-245.932	303.349	52.22	
-242.007	303.031	53.91	
-245.96	305.583	49.25	
-244.525	308.999	52.05	
-240.94	307.068	52.9	
-244.058	310.88	48.86	
-240.544	312.98	50.99	
-237.05	309.543	51.32	
-239.851	314.945	47.79	
-235.424	314.988	49.1	
-234.392	310.222	48.36	
-234.717	316.968	46.01	
-230.397	315.49	46.41	
-231.676	310.816	45.43	
-229.52	317.922	43.75	
-228.098	314.111	41.63	
-232.362	311.403	42.02	
-227.469	316.296	38.62	
-228.021	314.047	35.12	
-232.9	313.128	35.04	
-225.532	315.405	32.87	
-227.137	318.325	30.12	
-222.901	319.591	29.71	
-229.654	316.515	28.09	
-229.103	312.965	26.76	
-233.282	313.453	28.17	
-227.752	310.356	24.36	
-223.799	310.208	25.37	
-223.495	309.098	20.72	
-223.594	314.09	25.57	
-220.313	314.259	22.62	
-223.142	312.704	19.83	
-220.377	318.014	23.29	
-219.719	318.672	18.79	
-223.036	316.345	17.38	
-220.773	322.144	19.81	
-222.258	322.214	15.38	
-225.772	318.842	15.24	
-224.372	325.474	15.44	
-227.123	323.996	12.1	
-229.93	320.341	14.02	
-229.209	327.284	12.62	
-232.942	325.248	11.17	
-232.85	322.794	14.7	
-234.137	328.861	11.69	
-236.775	327.072	14.81	
-233.345	325.411	17.43	
-237.857	330.657	14.97	
-237.673	330.841	19.48	
-241.35	328.72	19.43	
-234.385	329.038	19.18	
-236.322	326.111	22.24	
-240.31	324.527	19.65	
-233.154	324.046	22.1	
-234.837	320.242	22.28	
-236.294	319.351	17.67	
-233.416	318.41	25.26	
-233.359	314.083	23.7	
-237.871	312.965	24.93	
-232.772	315.377	20.19	
-236.541	313.305	19.07	
-238.175	315.631	22.33	
-236.845	310.738	16.25	
-236.987	314.132	13.26	
-234.66	317.024	15.46	
-234.915	311.679	11.36	
-232.32	314.698	9.27101	
-230.849	316.452	12.85	
-230.573	311.495	8.44101	
-226.656	313.856	8.10201	
-225.885	315.476	12.67	
-224.704	310.575	7.86401	
-221.034	312.407	9.48101	
-222.187	313.376	14.12	
-220.045	308.73	9.44201	
-217.612	310.031	13.2	
-221.24	310.08	15.35	
-216.12	306.573	13.29	
-215.682	306.729	17.89	
-219.854	306.941	18.05	
-214.713	303.031	17.76	
-217.209	302.514	21.61	
-220.745	303.08	19.38	
-216.184	298.873	21.7	
-220.158	297.727	23.49	
-222.449	298.972	20.16	
-218.821	294.255	22.72	
-223.262	292.926	22.5	
-223.849	295.309	19.07	
-222.654	289.857	20.46	
-226.826	288.797	20.02	
-226.394	291.208	15.97	
-225.185	285.487	19.25	
-227.936	285.424	15.44	
-225.32	288.181	13.55	
-226.953	281.74	14.88	
-225.397	283.578	10.93	
-221.982	286.428	12.94	
-223.955	280.212	9.59401	
-220.207	282.687	8.95001	
-219.175	283.861	13.52	
-218.439	279.364	7.93101	
-215.088	281.301	10.47	
-217.492	280.453	13.78	
-212.613	278.544	9.56701	
-211.064	278.254	13.86	
-214.84	277.73	16.08	
-209.36	275.149	12.54	
-210.265	272.972	16.18	
-215.116	273.353	17.32	
-205.537	-181.043	215.116	
