120.463	232.987	189.554	
123.493	230.552	189.017	
118.619	233.154	186.089	
117.29	229.152	187.815	
114.064	228.664	184.477	
120.089	226.94	186.634	
117.213	223.318	186.259	
115.434	225.178	182.992	
120.444	221.681	185.354	
118.053	219.943	181.691	
117.302	223.593	178.481	
121.015	218.2	180.022	
118.64	217.408	176.098	
118.939	221.979	174.677	
121.716	215.689	174.634	
120.879	218.132	170.816	
122.058	222.823	171.537	
123.799	216.715	168.744	
123.859	220.126	165.76	
125.301	223.694	168.878	
123.567	219.029	162.755	
126.783	216.136	161.249	
125.086	213.368	163.929	
125.658	217.716	158.463	
125.612	215.277	154.517	
127.945	210.803	153.265	
125.402	218.656	153.11	
120.982	218.619	152.382	
119.926	214.012	152.092	
120.521	219.465	156.122	
116.641	217.362	156.49	
117.992	212.736	156.002	
117.18	218.283	160.089	
114.984	214.709	161.595	
118.07	211.197	159.983	
116.08	215.677	165.159	
117.906	211.267	165.52	
120.997	211.009	162.5	
119.675	211.217	169.062	
122.026	207.329	168.002	
125.375	207.787	164.374	
123.83	207.552	171.431	
127.538	206.277	168.984	
128.287	210.327	166.092	
128.983	205.337	172.329	
131.16	208.914	172.951	
127.929	211.571	171.841	
134.382	208.156	174.967	
132.285	207.725	179.075	
128.429	207.143	177.123	
135.18	207.238	181.019	
135.664	204.697	177.463	
131.616	203.245	178.481	
138.405	205.825	176.105	
138.894	206.432	172.082	
142.457	209.862	172.279	
136.69	205.394	169.133	
139.677	204.968	165.604	
144.002	204.218	168.051	
139.123	207.108	162.755	
136.548	203.247	162.012	
135.156	200.417	165.442	
133.927	203.029	159.269	
131.127	205.659	158.958	
132.301	210.508	158.837	
128.817	204.486	156.462	
126.164	202.58	159.58	
124.347	206.772	161.383	
123.663	201.444	157.006	
120.372	202.331	160.004	
121.133	206.521	159.672	
118.239	200.778	157.183	
115.176	203.975	157.925	
118.053	207.083	157.19	
113.254	202.848	154.772	
113.544	207.539	153.534	
117.757	208.895	153.506	
112.244	207.53	149.808	
114.077	211.722	149.221	
118.906	210.91	149.489	
112.674	211.267	145.65	
116.757	213.016	144.356	
119.005	209.815	146.145	
115.198	212.463	141.089	
119.307	211.192	139.427	
119.643	208.353	142.567	
117.363	209.735	136.712	
120.74	206.585	136.196	
119.922	204.028	140.233	
118.338	205.285	133.572	
119.955	201.143	135.079	
117.929	200.484	139.491	
117.589	199.145	132.759	
117.374	196.02	135.998	
114.571	197.67	139.788	
115.311	194.59	133.176	
112.55	193.367	136.606	
111.173	196.881	138.494	
110.154	190.937	134.817	
106.467	193.238	136.366	
107.675	197.275	136.083	
104.311	191.682	133.7	
102.365	195.736	133	
100.317	195.335	136.634	
105.735	197.457	133.219	
103.204	200.314	135.97	
102.089	197.504	139.809	
106.405	202.23	136.811	
104.31	203.35	140.707	
104.599	199.199	141.895	
107.318	205.402	141.527	
105.634	206.023	145.791	
100.564	206.362	145.063	
107.842	204.046	148.096	
106.721	200.374	148.019	
107.611	199.5	143.38	
110.14	200.302	149.907	
111.156	196.417	147.955	
111.481	198.254	144.08	
114.067	196.623	150.14	
116.383	194.845	146.562	
115.471	198.156	144.009	
119.327	195.554	148.719	
121.81	196.014	144.815	
119.565	199.286	143.529	
124.499	197.287	147.177	
125.808	199.952	143.649	
122.248	203.396	143.295	
128.545	201.466	145.919	
127.99	205.339	143.408	
123.622	206.701	145.12	
130.728	206.803	145.579	
129.016	210.935	144.412	
124.865	210.107	146.923	
132.053	212.333	145.926	
128.87	214.457	148.507	
126.336	210.36	150.069	
131.707	215.865	150.536	
130.54	216.342	154.524	
129.829	211.732	156.186	
132.32	219.348	155.556	
135.971	218.432	157.777	
137.114	222.541	156.617	
134.873	216.657	160.853	
131.746	217.663	162.818	
131.995	213.257	162.55	
129.831	219.74	165.371	
129.231	223.32	163.419	
129.353	224.948	167.888	
132.88	223.263	162.069	
133.703	227.246	163.865	
133.094	225.352	167.648	
137.178	226.88	162.302	
138.935	228.716	166.057	
137.206	226.064	168.935	
142.046	227.287	164.466	
143.404	227.123	169.02	
140.318	223.875	170.971	
146.584	224.912	168.638	
146.197	223.281	172.93	
142.271	220.2	172.895	
149.248	221.006	172.103	
147.851	217.926	175.044	
144.59	217.098	172.442	
151.202	216.489	173.906	
148.763	213.145	172.223	
146.384	215.744	169.324	
152.28	211.956	171.495	
151.222	210.844	167.188	
149.367	207.391	168.843	
149.463	214.137	167.054	
145.913	211.549	165.555	
145.169	208.5	169.416	
143.817	214.678	165.307	
140.148	213.163	166.616	
140.588	213.105	171.537	
137.58	213.756	163.992	
133.822	214.423	166.566	
132.551	209.809	166.955	
135.93	215.941	169.288	
134.352	212.705	171.891	
135.802	210.136	168.723	
132.679	213.311	175.313	
136.79	213.828	177.194	
138.856	215.346	173.715	
134.825	216.44	179.025	
138.203	219.405	179.435	
138.836	219.791	175.249	
135.254	221.443	180.56	
137.398	225.251	179.16	
137.775	224.609	174.295	
134.217	227.3	179.683	
135.437	230.335	176.727	
135.197	227.861	172.485	
131.857	231.414	177.441	
132.031	232.603	172.93	
131.643	228.557	171.961	
128.615	234.11	173.333	
127.549	233.265	168.942	
127.821	229.245	169.882	
123.982	234.36	169.776	
122.585	230.929	167.082	
123.842	228.072	169.918	
118.964	232.032	167.655	
117.546	227.756	167.4	
119.733	226.46	170.823	
114.404	229.374	168.702	
113.29	225.224	170.448	
116.533	225.581	173.185	
110.866	226.485	172.972	
110.142	222.632	174.832	
113.508	224.102	177.816	
107.104	224.55	175.964	
108.133	223.033	180.298	
111.203	225.89	180.531	
104.704	224.253	181.521	
107.425	226.765	184.208	
109.502	229.363	180.638	
104.501	228.6	185.92	
106.937	232.321	184.873	
106.811	231.961	180.015	
103.945	234.359	186.16	
104.972	236.836	182.37	
103.425	233.638	180.256	
102.426	239.588	183.24	
100.997	239.833	178.933	
100.078	235.62	178.092	
98.3024	241.985	180.539	
95.2419	240.184	177.972	
95.4942	235.221	178.184	
45.2079	173.222	256.878	
47.1482	176.503	256.036	
43.1234	172.352	253.724	
47.3506	171.014	252.628	
45.7941	168.818	248.803	
48.7292	174.161	251.193	
51.444	171.884	248.272	
48.0314	170.833	246.08	
52.5174	175.363	247.551	
51.9381	174.219	243.033	
47.1068	173.971	242.128	
52.6853	177.634	241.541	
51.1326	176.464	237.39	
46.537	176.684	238.649	
52.0045	179.994	236.16	
47.8781	179.927	234.038	
44.3662	180.444	237.468	
48.1315	183.406	232.454	
43.6812	183.918	231.832	
42.4039	184.166	236.64	
42.9851	184.532	228.82	
44.8443	188.293	226.896	
48.4835	186.216	227.158	
41.9623	187.801	225.228	
41.9188	188.985	220.688	
45.1746	192.005	218.001	
38.3071	188.85	221.339	
37.6969	184.793	219.5	
41.3989	184.305	216.516	
38.9372	183.301	222.859	
40.716	179.702	220.985	
44.4317	181.558	218.51	
41.8587	179.181	224.542	
45.5653	177.041	223.269	
47.8294	180.723	220.928	
46.6866	177.063	226.932	
50.6876	179.114	225.419	
49.5008	182.918	223.707	
52.7352	179.94	228.77	
55.5788	182.805	226.423	
53.4934	186.973	224.704	
57.3112	183.626	229.796	
57.3109	187.945	228.176	
52.3989	189.018	228.148	
59.9783	188.585	230.814	
57.4124	190.181	233.826	
54.3593	187.053	233.395	
59.2753	192.788	235.87	
61.719	189.76	238.401	
60.9322	186.598	235.452	
63.3359	192.101	240.515	
63.5867	193.695	236.464	
65.1656	189.73	235.431	
62.1099	196.597	236.669	
59.4713	198.047	233.904	
56.8833	201.085	236.81	
58.6894	196.833	230.397	
57.3161	200.614	228.091	
59.5346	204.257	230.899	
53.9966	200.645	226.755	
56.7127	198.709	223.396	
60.853	196.801	224.393	
55.2994	196.961	220.384	
52.752	194.129	220.858	
48.6513	194.807	223.594	
52.2722	192.618	217.457	
55.4095	189.492	218.312	
52.7073	186.872	221.508	
54.8519	187.846	214.925	
55.5008	183.83	216.947	
51.7977	184.196	219.048	
55.191	182.654	213.313	
52.6851	179.193	214.734	
49.8326	181.853	216.544	
51.8695	178.301	211.107	
47.2767	178.446	212.57	
46.3643	182.385	214.423	
45.2216	178.146	209.19	
41.4853	179.675	211.432	
42.5914	184.31	212.521	
39.9015	179.332	207.995	
37.9649	183.397	208.978	
41.7603	185.411	209.297	
36.6124	182.815	205.634	
37.049	187.331	204.757	
41.108	187.061	205.789	
36.7281	186.275	201.165	
39.3109	189.969	200.069	
43.5671	188.36	201.738	
38.8834	188.468	196.632	
43.2927	190.065	196.156	
46.0786	187.03	198.805	
43.5881	188.537	192.523	
47.9619	187.832	193.492	
48.3933	183.96	196.63	
47.5562	186.71	189.859	
50.2325	183.265	191.221	
48.1916	181.13	194.232	
51.2215	181.698	187.841	
49.8752	177.506	189.316	
46.3676	178.331	191.487	
49.6753	176.32	185.776	
45.7349	174.195	186.758	
47.909	171.361	188.974	
44.5815	177.217	188.819	
43.5002	173.825	191.873	
47.8116	171.972	193.16	
42.4946	176.463	194.334	
43.4888	173.325	197.544	
47.6441	173.702	196.413	
42.3511	175.794	200.076	
43.9857	173.005	203.371	
43.0357	168.32	201.681	
47.0195	174.74	204.877	
50.0072	173.995	202.473	
48.3552	176.174	198.584	
51.2803	176.82	204.905	
53.5858	178.673	201.582	
50.0221	179.841	199.524	
54.7421	180.896	204.311	
54.5034	184.243	201.108	
50.2681	183.667	200.472	
55.1857	186.404	203.986	
52.8847	189.779	201.79	
49.3108	187.649	201.886	
53.2043	191.592	205.009	
49.1518	193.513	203.958	
45.8627	189.876	204.509	
49.2589	195.439	207.328	
44.5895	195.151	207.225	
44.1019	190.387	208.059	
44.6692	197.089	210.456	
40.4778	195.37	211.213	
42.2461	190.772	211.623	
40.262	197.756	214.062	
39.6459	193.809	216.375	
43.7761	191.342	214.748	
39.6936	195.871	219.514	
41.3103	193.632	222.626	
46.0483	192.978	221.388	
39.4317	194.798	225.525	
41.5749	197.79	227.802	
37.5502	198.799	229.364	
44.6696	196.15	229.088	
44.6674	192.526	230.39	
48.2722	193.27	227.943	
44.1579	189.824	232.985	
40.035	189.363	233.041	
41.0288	188.144	237.56	
39.5748	193.245	233.02	
37.2295	193.203	236.775	
40.7875	191.786	238.627	
36.911	196.972	236.216	
37.4326	197.495	240.735	
41.1183	195.359	241.166	
37.9614	201.011	239.547	
40.628	201.17	243.45	
44.223	198.016	242.545	
42.4471	204.52	242.891	
46.0912	203.192	245.331	
48.4526	199.722	242.63	
47.7556	206.575	244.397	
51.8533	204.773	244.758	
50.9847	202.408	241.3	
52.648	208.429	244.023	
54.434	206.843	240.261	
50.5783	205.084	238.62	
55.2759	210.521	239.907	
53.8624	210.732	235.622	
57.5699	208.894	234.653	
50.889	208.742	236.711	
52.1237	206.021	233.218	
56.6877	204.586	234.583	
49.2016	203.74	234.109	
50.9393	200.009	233.359	
53.6493	199.163	237.404	
48.9371	198.201	230.835	
49.5079	193.83	232.214	
53.5478	192.968	229.81	
49.7988	195.034	235.834	
53.7893	193.106	235.792	
54.3945	195.614	232.327	
55.0116	190.563	238.373	
55.79	193.951	241.272	
52.8063	196.743	239.921	
54.4546	191.358	243.62	
52.375	194.216	246.427	
49.8567	195.874	243.422	
51.0556	190.871	247.579	
47.1984	192.91	249.015	
45.2045	194.617	244.857	
45.56	189.512	249.665	
41.501	191.162	249.135	
41.3386	192.301	244.411	
40.7579	187.435	249.34	
37.3795	188.683	246.413	
40.2911	188.986	243.422	
36.1036	185.133	246.589	
34.4411	185.334	242.297	
38.3775	185.772	241.081	
33.7626	181.618	242.601	
35.1647	181.307	238.21	
39.1351	182.044	239.405	
34.3347	177.589	238.309	
37.716	176.666	235.438	
40.7675	178.031	238.104	
36.8724	173.185	236.471	
41.2178	172.031	235.438	
42.5704	174.394	238.656	
41.3595	168.937	237.482	
45.5653	168.141	236.775	
46.1062	170.458	240.862	
44.392	164.769	237.878	
48.0074	164.731	240.77	
45.884	167.353	243.379	
47.4209	160.995	241.47	
46.8823	162.703	245.776	
42.8806	165.331	244.793	
46.06	159.258	247.332	
42.5004	161.493	249.015	
40.2162	162.657	244.906	
41.2622	158.068	250.337	
37.2231	159.812	248.866	
38.7251	159.174	244.991	
35.2074	156.861	250.309	
32.6443	156.602	246.582	
35.7181	156.346	243.429	
31.5263	153.385	248.23	
31.5026	151.284	244.404	
35.8416	151.98	242.057	
157.267	141.014	250.945	
156.441	143.523	248.053	
154.734	138.107	250.627	
157.797	137.213	247.325	
156.019	133.014	246.618	
156.37	139.221	244.461	
158.008	136.258	241.399	
155.141	133.512	242.665	
156.558	138.867	239.158	
154.491	135.145	236.909	
150.88	133.531	239.829	
152.475	137.215	234.427	
149.977	133.587	233.161	
147.301	133.532	237.093	
148.101	135.838	230.736	
144.232	133.736	232.228	
143.245	135.408	236.789	
141.773	135.638	229.972	
138.129	134.786	232.532	
139.489	137.462	236.464	
135.843	133.427	230.892	
134.173	135.674	227.236	
137.912	134.911	225.461	
131.596	133.691	228.261	
128.715	132.08	225.016	
128.028	133.571	220.108	
126.622	131.615	228.021	
127.441	127.215	228.452	
128.755	125.811	224.061	
130.742	128.191	230.199	
132.952	124.58	228.827	
133.286	125.359	224.026	
135.77	126.44	230.474	
138.832	124.745	227.724	
137.27	126.798	223.474	
141.418	127.123	229.322	
142.34	128.721	224.931	
138.623	130.442	223.46	
144.928	131.603	225.383	
144.216	133.149	221.006	
139.701	134.989	220.115	
146.646	136.098	221.763	
143.557	138.608	219.436	
139.597	138.47	222.527	
146.359	141.122	219.111	
145.215	143.579	222.364	
144.601	140.357	225.178	
146.138	147.218	221.579	
150.66	146.73	222.428	
150.37	142.448	222.039	
151.586	150.115	222.003	
148.944	149.199	218.743	
151.575	145.655	218.093	
146.47	151.273	219.033	
142.501	150.298	218.609	
140.554	153.888	221.423	
140.859	147.115	217.237	
136.786	148.6	215.583	
137.73	153.435	214.743	
133.828	147.157	217.039	
135.061	144.273	213.546	
139.389	144.069	211.842	
133.511	140.808	213.08	
133.485	138.283	215.986	
131.655	139.593	220.433	
132.31	135.148	214.621	
136.531	133.699	213.907	
137.619	132.884	218.595	
135.346	130.367	212.578	
138.912	128.422	214.6	
137.248	129.301	218.489	
137.536	125.379	212.832	
138.345	122.961	216.502	
135.877	125.545	218.892	
136.481	120.012	215.038	
133.958	120.023	219.118	
132.15	124.031	219.804	
131.053	117.511	218.503	
128.779	119.232	222.109	
127.597	123.744	220.631	
126.14	116.6	221.042	
123.137	120.04	221.826	
124.84	122.568	218.786	
120.854	117.366	220.759	
118.335	120.543	218.56	
121.797	121.778	216.467	
116.885	117.591	216.749	
116.16	120.395	213.129	
120.781	120.96	211.743	
114.988	117.185	211.687	
116.894	118.966	207.776	
121.741	118.642	208.462	
116.14	115.801	205.662	
119.993	116.614	203.456	
123.896	115.454	206.327	
118.518	113.579	201.73	
122.861	112.182	201.759	
124.064	111.765	205.761	
122.701	109.164	199.362	
124.741	106.458	202.522	
122.94	107.638	206.079	
123.44	103.324	200.656	
122.379	101.527	204.722	
126.458	100.911	205.478	
120.986	104.854	205.931	
123.568	103.707	209.735	
128.175	103.905	208.109	
122.699	107.041	211.241	
126.622	106.556	213.518	
128.726	107.04	209.784	
125.793	109.779	215.243	
130.039	109.793	217.068	
131.01	104.856	218.029	
131.929	112.588	215.399	
133.192	111.255	211.962	
128.989	110.416	209.982	
133.781	115.136	211.842	
132.746	115.162	207.529	
128.636	114.163	208.328	
133.691	118.699	207.812	
130.149	119.405	204.87	
127.27	117.858	207.649	
130.919	122.978	205.634	
126.442	123.905	204.806	
125.169	121.578	208.024	
127.326	127.355	206.185	
122.981	127.43	207.727	
122.914	124.154	211.446	
123.703	130.9	209.311	
120.604	129.733	212.578	
123.194	126.278	214.84	
121.221	133.1	214.02	
119.612	131.294	217.944	
123.476	128.287	218.333	
119.627	134.821	219.267	
122.432	132.899	222.357	
125.8	130.873	219.175	
122.933	136.366	223.771	
126.792	136.75	225.327	
129.789	136.441	221.409	
126.319	138.951	228.183	
127.318	143.061	227.236	
124.805	143.989	230.8	
130.942	143.058	226.416	
133.521	140.965	228.353	
134.399	140.866	224.04	
135.894	140.216	231.21	
133.353	139.135	234.264	
136.912	140.959	236.845	
130.937	142.049	233.374	
131.2	143.685	237.482	
135.337	144.391	236.64	
128.697	146.29	236.195	
131.033	149.456	238.649	
134.905	148.682	236.959	
128.952	151.711	236.464	
132.633	154.567	237.1	
136.301	152.22	234.894	
131.828	157.293	234.434	
136.242	158.337	233.868	
138.359	154.485	231.478	
135.103	160.766	231.061	
139.064	160.366	229.004	
138.022	156.321	228.077	
137.315	163.017	226.875	
137.521	159.934	223.644	
134.982	156.795	225.793	
135.979	162.842	221.754	
132.791	160.28	219.91	
135.797	158.907	217.192	
132.344	158.767	223.283	
132.876	154.769	220.964	
137.439	155.311	219.062	
132.537	152.94	224.273	
135.342	149.899	223.665	
139.626	152.039	224.62	
133.668	146.58	223.983	
137.063	144.04	225.758	
139.097	142.743	221.621	
138.402	147.08	227.547	
142.165	146.377	225.284	
139.518	146.452	221.876	
145.639	146.094	226.903	
145.795	150.584	227.179	
141.588	151.397	227.589	
147.43	149.616	230.453	
145.873	153.079	232.9	
141.77	152.173	232.2	
147.305	150.839	235.537	
144.291	152.539	238.542	
139.943	151.089	236.739	
145.298	149.924	241.152	
141.355	150.094	243.117	
138.318	148.255	239.865	
142.941	147.121	244.899	
138.475	145.706	244.963	
138.84	144.777	240.918	
139.604	142.801	247.056	
136.231	140.16	245.373	
138.082	140.545	241.71	
137.863	137.185	247.134	
136.828	134.712	243.429	
139.749	136.773	241.173	
138.286	131.658	245.203	
139.665	129.947	241.187	
142.369	133.17	240.438	
141.434	127.57	243.492	
144.548	127.005	240.162	
145.818	130.984	240.607	
147.295	125.722	242.304	
150.261	125.52	239.158	
151.407	129.765	240.706	
151.776	123.183	241.696	
155.724	125.582	241.039	
154.173	128.756	243.45	
157.668	122.949	243.054	
158.508	126.604	245.691	
153.877	127.383	247.049	
160.557	124.654	248.336	
157.75	126.691	251.228	
153.506	124.781	249.771	
159.388	124.528	253.979	
154.95	124.241	255.315	
154.389	121.789	251.921	
155.831	122.328	258.511	
152.347	119.433	257.953	
153.045	118.042	253.858	
154.101	117.611	260.774	
153.335	113.784	258.957	
154.759	113.77	254.155	
176.373	283.786	247.289	
175.973	285.021	243.591	
173.438	281.3	247.94	
176.448	278.877	245.564	
174.052	274.928	246.363	
175.394	279.771	242.064	
176.582	275.549	240.459	
173.328	273.933	242.495	
175.561	277.2	237.277	
173.054	273.259	236.57	
169.165	273.34	239.575	
171.386	274.369	233.331	
168.422	270.895	233.437	
165.707	272.765	236.852	
166.898	272.151	230.142	
162.753	271.351	232.058	
161.914	274.767	235.459	
160.667	272.531	229.11	
156.89	273.234	231.521	
158.548	277.061	234.165	
154.438	271.588	230.354	
153.152	272.339	225.963	
156.777	270.482	224.909	
150.333	271.337	227.533	
147.283	268.901	224.945	
146.893	268.359	219.811	
145.081	269.911	227.717	
145.291	266.051	229.965	
146.474	262.877	226.607	
148.652	267.196	231.394	
150.329	263.085	231.712	
150.894	261.901	227.08	
153.365	265.096	232.695	
156.192	262.059	231.083	
155.029	262.437	226.246	
159.056	264.505	231.775	
160.261	264.07	227.165	
156.915	265.618	224.952	
163.274	266.625	226.698	
162.874	266.374	222.024	
158.663	268.218	220.129	
165.674	269.02	221.727	
162.996	270.713	218.348	
159.034	272.38	221.006	
166.148	272.551	217.301	
165.317	276.215	219.21	
164.177	274.457	223	
166.799	279.164	217.188	
171.175	278.451	218.447	
170.251	274.404	219.726	
172.563	281.209	216.778	
169.853	279.369	213.928	
171.987	275.63	214.968	
167.719	281.72	213.242	
163.661	281.164	212.924	
162.227	285.821	213.992	
161.635	277.99	212.867	
157.815	279.118	210.407	
159.482	283.095	207.826	
154.664	278.79	212.125	
155.516	274.59	210.103	
159.823	273.231	208.985	
153.508	271.488	210.965	
153.057	270.344	214.586	
151.375	273.552	218.022	
151.476	267.101	214.508	
155.432	264.931	214.692	
156.334	265.978	219.415	
153.821	261.558	214.741	
157.033	260.161	217.598	
155.442	262.713	220.709	
155.267	256.87	217.089	
155.691	256.094	221.508	
153.552	259.664	222.456	
153.395	252.97	221.119	
150.867	255.001	224.726	
149.631	259.103	223.63	
147.607	252.768	224.895	
145.534	256.047	227.335	
145.052	259.713	224.117	
142.591	253.615	227.236	
140.123	257.456	226.416	
142.19	258.263	222.703	
137.489	254.87	226.295	
135.453	257.131	222.809	
139.103	257.008	220.667	
133.651	253.95	222.222	
133.409	255.151	217.768	
138.059	254.492	216.58	
131.767	251.748	217.577	
134.013	251.611	213.461	
138.748	250.991	214.6	
132.865	248.027	212.754	
136.803	247.354	210.661	
140.479	247.012	214.07	
134.938	244.095	210.173	
139.049	242.309	211.078	
140.114	243.385	214.989	
138.481	238.604	210.046	
140.028	237.107	214.105	
138.418	239.938	216.841	
138.366	233.771	213.582	
136.962	233.839	217.902	
140.897	233.077	219.139	
136.074	237.577	217.655	
138.344	237.63	221.706	
142.985	236.632	220.532	
137.963	241.41	221.735	
141.761	241.446	224.33	
143.959	240.104	220.858	
141.369	245.143	224.577	
145.532	245.352	226.557	
145.757	241.107	229.414	
147.851	247.018	224.096	
148.964	244.261	221.544	
144.675	243.16	219.691	
150.079	247.618	219.917	
149.154	246.086	215.908	
144.915	245.978	216.707	
150.588	249.275	214.833	
147.245	249.213	211.609	
144.112	249.25	214.557	
148.507	252.664	210.958	
144.224	253.725	209.495	
142.579	253.058	213.299	
145.549	257.246	209.459	
141.247	258.505	210.52	
140.68	257.094	215.279	
142.439	262.194	210.69	
139.147	262.829	213.907	
141.171	260.28	217.506	
140.216	266.4	213.956	
138.319	266.556	218.164	
141.698	263.487	219.981	
138.794	270.259	217.973	
141.245	269.383	221.749	
144.33	265.846	219.875	
142.195	272.99	221.685	
146.051	273.507	223.269	
149.035	271.286	220.023	
145.839	276.7	224.994	
147.476	279.976	222.611	
145.04	282.517	225.305	
151.051	279.161	222.095	
153.278	277.728	224.909	
154.196	275.777	221.049	
155.453	277.852	227.957	
152.714	278.388	230.984	
156.474	280.676	232.921	
150.809	281.072	228.905	
151.21	284.123	232.002	
155.405	283.881	231.245	
149.133	286.286	229.612	
151.863	289.854	230.814	
155.606	287.994	229.845	
150.162	291.268	227.752	
154.194	293.652	227.49	
157.544	290.215	226.67	
153.847	295.191	223.927	
158.389	295.378	223.333	
159.971	290.668	222.802	
157.681	296.652	219.755	
161.534	294.876	218.234	
159.928	290.962	218.892	
160.244	296.699	215.18	
160.067	292.604	213.44	
157.047	290.902	216.424	
158.964	294.621	210.407	
155.469	291.96	209.509	
158.295	289.259	207.748	
154.734	291.968	213.122	
154.729	287.333	212.613	
159.371	286.523	210.994	
154.063	287.024	216.325	
156.426	283.692	217.181	
160.985	285.526	217.556	
154.302	281.048	218.694	
157.253	279.001	221.537	
159.16	275.941	218.425	
159.01	282.355	222.138	
162.679	280.359	220.617	
160.114	279.366	217.244	
166.02	280.259	222.428	
166.834	284.46	220.928	
162.754	285.836	220.646	
168.237	284.662	224.436	
167.156	288.977	225.199	
162.963	288.36	224.577	
168.228	287.843	228.615	
165.415	290.945	230.446	
160.938	289.439	229.039	
166	289.489	233.96	
162.122	290.977	235.459	
158.853	288.3	232.907	
163.182	288.716	238.302	
158.595	288.065	238.613	
158.866	285.533	235.297	
159.255	286.133	241.795	
155.548	283.456	241.017	
157.471	282.052	237.595	
156.707	281.252	243.902	
155.365	277.609	241.364	
158.62	278.261	238.748	
156.353	275.389	244.348	
157.574	272.129	241.47	
160.698	274.351	239.681	
158.929	270.636	244.631	
161.955	268.342	241.993	
163.77	271.972	240.911	
164.463	267.719	244.673	
167.415	265.892	242.092	
169.163	270.28	241.944	
168.55	264.616	245.458	
172.82	266.053	244.199	
171.666	270.035	245.005	
174.301	264.178	247.205	
175.613	268.45	248.223	
171.145	270.311	248.845	
177.321	267.489	251.596	
174.782	270.832	253.222	
170.377	269.122	252.381	
176.06	269.784	256.743	
171.582	270.589	257.719	
170.772	267.146	255.591	
172.173	270.093	261.531	
168.305	267.672	261.884	
168.854	264.644	258.716	
169.747	266.93	265.342	
168.432	262.773	265.073	
169.921	260.673	260.774	
59.4215	261.281	306.305	
63.0596	260.462	307.457	
59.0428	259.785	302.698	
58.6801	256.157	305.456	
57.32	253.521	301.913	
62.2999	255.227	305.866	
61.214	250.726	306.206	
60.2635	250.719	302.161	
64.9015	250.573	306.757	
64.8275	247.105	303.575	
64.0739	249.099	299.113	
68.609	246.554	303.434	
68.2707	243.908	299.672	
67.4848	247.587	296.737	
72.067	243.464	299.714	
71.9396	244.223	295.161	
71.0222	248.974	294.333	
75.6702	243.825	294.489	
75.6604	246.068	290.571	
74.502	250.541	292.367	
76.8793	244.319	288.224	
81.2466	242.883	288.698	
79.7502	240.391	291.745	
80.7507	243.104	285.36	
83.0091	239.996	282.68	
87.0682	236.966	283.84	
82.1837	242.546	280.177	
78.6702	240.321	278.487	
79.4778	235.739	279.647	
76.5884	241.735	281.414	
73.8469	238.207	281.598	
76.8213	234.758	283.239	
72.6436	240.142	284.625	
71.4513	236.397	286.767	
75.9305	234.415	287.375	
70.7482	238.599	289.878	
73.7087	235.747	292.283	
77.5703	236.196	290.388	
73.9437	237.334	295.882	
77.718	234.771	296.921	
81.7833	235.813	294.27	
77.9307	236.6	300.322	
82.4656	236.595	299.474	
82.7893	239.755	295.585	
82.8199	237.288	303.222	
83.1911	241.491	302.932	
79.9131	242.094	300.23	
85.488	242.77	305.767	
82.2956	242.4	309.098	
79.9149	239.717	306.672	
84.2627	243.787	311.721	
86.8796	241.06	309.663	
83.5414	238.178	310.151	
89.3394	242.84	308.588	
91.0475	242.679	304.904	
92.8249	247.237	304.593	
90.619	240.077	302.14	
94.6469	240.233	299.849	
97.7291	242.112	303.328	
94.4805	241.105	296.348	
93.8682	236.404	296.483	
92.3794	234.186	300.28	
92.7082	234.355	293.463	
89.5019	235.382	291.632	
88.8427	240	289.942	
88.8476	232.649	289.235	
86.0875	230.568	292.134	
82.3748	233.797	291.759	
85.2889	227.845	289.659	
81.0185	227.828	291.243	
80.3108	231.682	289.532	
80.7594	224.899	288.818	
76.7166	226.417	287.545	
78.3881	230.212	286.392	
76.6418	223.847	284.717	
75.7177	227.647	281.888	
78.8799	230.704	282.327	
75.9815	226.164	278.232	
76.3188	230.468	276.599	
80.6406	231.974	278.225	
76.5915	228.62	273.254	
79.9378	231.636	272.363	
82.3721	230.313	275.687	
80.0202	229.719	269.316	
84.6157	230.079	269.252	
84.7587	228.526	273.212	
84.4652	227.218	266.855	
88.66	225.964	268.389	
87.3753	224.378	272.809	
88.0032	223.126	265.943	
90.3164	220.713	269.28	
87.1579	220.242	272.964	
89.8237	217.339	267.357	
89.5257	215.323	271.373	
85.1272	216.385	273.502	
89.302	212.456	268.877	
86.0842	210.982	271.762	
82.9758	213.838	271.833	
85.5527	207.362	270.497	
80.9858	208.071	270.186	
80.7403	212.026	268.722	
80.6583	205.084	267.845	
77.8442	207.55	265.278	
74.8831	207.161	268.227	
80.0368	210.628	265.618	
75.85	212.596	266.431	
74.4452	210.623	270.68	
77.6475	215.869	267.223	
73.9809	216.819	269.79	
75.231	213.664	272.462	
75.5631	220.159	270.49	
72.3252	220.951	273.686	
68.0916	218.798	271.727	
74.0493	220.837	277.023	
74.3887	217.065	277.999	
77.1913	215.659	274.421	
76.6811	219.016	280.538	
79.6428	215.705	280.509	
80.6852	216.451	276.373	
81.2274	217.73	283.055	
85.2039	216.398	281.089	
84.2085	218.213	277.327	
86.6862	218.865	283.444	
90.107	219.47	280.361	
87.4791	220.938	277.433	
91.0803	222.256	282.553	
92.5818	224.336	278.727	
88.4566	225.591	276.309	
93.58	227.385	280.82	
92.6747	229.957	277.066	
87.7941	229.444	276.981	
93.7175	232.923	279.067	
91.2236	235.384	276.062	
87.021	233.385	277.631	
92.7801	238.38	277.638	
88.3463	239.38	278.423	
87.0113	235.048	280.721	
89.537	242.343	280.354	
86.893	243.183	283.493	
87.2628	239.304	286.527	
86.9893	246.81	283.698	
89.6144	248.177	286.859	
89.5921	251.978	284.568	
88.1527	246.865	289.999	
84.3961	246.878	290.734	
86.2537	243.136	292.198	
81.0843	248.382	291.795	
80.0337	250.662	288.507	
77.9222	253.245	291.993	
83.6735	252.007	288.21	
82.3194	256.201	288.507	
81.0802	255.235	292.509	
86.0332	257.054	288.033	
85.5195	260.404	291.187	
83.8771	257.939	294.284	
89.2763	260.211	291.031	
88.8386	261.713	295.465	
86.5603	258.007	297.692	
92.4548	261.176	296.667	
91.1408	260.621	301.058	
88.8404	256.176	301.249	
94.8497	259.924	301.928	
93.6359	257.302	305.371	
92.0824	254.451	302.536	
97.4401	257.351	305.689	
97.1229	252.962	304.841	
95.2607	253.416	300.711	
100.846	253.27	305.399	
101.9	250.857	301.73	
100.916	247.432	304.056	
99.3243	252.875	299.997	
97.7362	248.664	298.781	
96.6844	246.642	303.179	
94.8944	250.362	296.893	
91.7846	247.716	297.77	
90.3651	249.017	302.302	
90.3419	246.377	294.559	
85.9385	245.89	295.769	
86.3123	241.477	297.565	
86.185	248.777	298.095	
84.9867	245.941	301.291	
88.3263	243.646	299.771	
82.116	246.529	303.773	
84.7477	249.247	306.184	
87.2919	250.734	303.059	
81.4699	251.05	306.404	
83.1847	255.22	306.46	
85.1468	254.839	302.698	
79.514	255.902	306.008	
80.5406	259.8	303.816	
82.9176	258.297	299.827	
76.8961	260.288	302.811	
78.0054	262.709	299.311	
80.2069	259.462	296.356	
74.2544	262.172	298.682	
75.6597	262.226	294.255	
77.1016	258.324	294.793	
72.0252	262.071	293.237	
73.0675	259.837	289.419	
74.3281	256.7	291.788	
69.2995	259.35	288.896	
70.303	255.088	287.418	
71.3042	253.923	291.321	
66.5658	254.535	286.654	
66.9313	250.168	287.708	
68.0359	250.862	291.788	
63.1977	250.422	287.517	
63.0356	246.841	290.416	
64.7033	249.209	293.471	
59.5799	247.415	291.646	
59.6091	244.206	294.552	
60.9004	247.723	297.508	
55.8969	244.716	294.128	
55.7385	244.922	298.837	
57.2757	248.884	298.738	
51.8999	244.713	298.675	
52.3711	248.809	300.832	
54.5625	251.145	297.147	
48.582	249.487	301.008	
49.7447	253.42	299.142	
51.5633	251.97	294.963	
45.9897	254.217	298.915	
47.3952	255.871	294.8	
47.9799	251.884	293.718	
43.9402	257.327	293.994	
44.202	255.82	289.652	
45.2075	251.582	290.274	
40.5409	256.799	289.645	
39.4775	253.257	287.305	
41.3811	249.194	289.447	
173.407	197.05	258.551	
175.165	198.875	261.465	
171.832	193.802	260.031	
168.936	197.106	261.304	
165.822	193.971	262.747	
170.544	198.231	264.476	
166.439	199.301	266.308	
165.623	195.287	266.657	
168.73	200.488	269.085	
165.827	198.06	271.932	
166.672	193.285	271.26	
167.79	198.6	275.149	
165.351	195.436	277.412	
167.493	191.726	275.312	
167.448	196.168	280.538	
167.669	191.591	281.139	
170.701	189.702	277.723	
169.765	191.622	284.306	
171.218	187.338	283.896	
174.027	188.043	279.901	
170.58	185.673	286.506	
172.251	187.068	290.543	
169.548	190.245	290.133	
171.899	183.678	290.826	
170.867	182.11	295.104	
171.154	184.427	299.743	
172.095	178.977	293.527	
168.051	177.253	292.657	
165.144	179.438	295.754	
167.973	179.478	289.497	
163.561	179.976	289.574	
162.873	182.684	293.513	
164.433	182.306	286.696	
160.929	184.958	287.566	
162.309	186.668	292.042	
162.296	187.385	284.922	
162.166	190.759	288.287	
164.9	189.475	291.427	
163.752	194.007	286.661	
164.26	196.107	290.812	
167.504	193.965	293.874	
165.962	199.035	288.98	
168.813	198.932	292.594	
171.191	194.571	291.929	
169.726	202.414	291.526	
173.232	201.427	289.355	
171.391	198.138	287.184	
175.818	204.245	289.581	
173.719	207.09	286.612	
169.97	204.878	287.008	
176.133	209.631	286.597	
175.588	208.567	290.762	
171.25	209.054	289.822	
178.484	207.564	291.738	
179.228	204.293	294.057	
183.884	203.377	292.664	
176.78	202.032	295.967	
179.349	200.402	299.488	
182.973	203.919	299.863	
179.723	196.83	299.707	
175.78	197.841	302.076	
173.348	201.727	301.341	
173.32	195.179	303.207	
171.898	192.636	300.605	
174.961	190.002	297.678	
169.284	190.789	302.38	
166.067	193.577	300.867	
166.154	191.968	296.136	
163.334	191.603	302.529	
160.682	192.449	298.88	
163.134	189.956	296.419	
158.151	190.685	301.107	
156.699	188.551	297.459	
160.59	186.909	296.653	
154.496	186.296	299.665	
156.665	182.651	297.353	
161.049	182.945	297.734	
155.489	179.435	299.311	
158.906	177.054	297.402	
162.951	179.039	299.318	
157.45	174.172	299.495	
161.925	173.303	300.414	
162.596	177.145	302.267	
160.264	170.685	302.38	
163.478	171.271	305.64	
162.583	175.422	305.746	
161.095	169.544	307.903	
162.897	171.925	311.445	
161.042	176.254	310.321	
160.191	170.058	313.284	
159.916	174.022	315.645	
157.782	177.246	312.647	
156.965	172.851	317.852	
155.439	177.048	317.809	
153.571	178.232	313.333	
152.984	175.215	320.058	
149.951	177.783	317.795	
150.155	176.816	313.722	
146.743	177.186	319.916	
144.37	176.057	316.14	
147.13	173.777	313.906	
141.747	174.313	318.255	
141.672	170.903	315.306	
139.604	173.322	312.548	
145.469	170.94	314.931	
144.362	170.722	310.441	
142.164	174.995	309.536	
148.021	171.059	309.593	
146.568	172.804	305.555	
145.131	176.254	307.811	
150.148	173.023	304.565	
148.89	175.505	300.923	
144.429	173.378	299.481	
150.064	178.999	301.411	
147.486	180.774	303.709	
147.963	178	307.57	
150.557	183.173	303.632	
149.905	184.284	307.945	
150.966	180.34	309.274	
152.65	186.618	307.238	
154.018	185.567	311.565	
154.568	181.42	310.639	
156.985	187.586	310.597	
159.46	185.014	313.567	
158.794	181.52	311.41	
162.379	186.749	312.018	
164.711	182.848	312.817	
162.896	179.625	309.585	
167.789	184.418	311.191	
168.966	180.138	309.925	
165.492	179.4	306.503	
172.022	181.631	308.376	
172.172	177.871	305.76	
168.024	179.106	303.37	
175.528	179.003	304.657	
173.506	178.881	300.542	
169.487	181.78	301.595	
176.682	180.402	299.191	
175.781	182.801	295.868	
173.248	186.614	297.791	
178.649	182.329	293.711	
181.558	185.507	294.029	
184.329	182.527	292.254	
179.802	188.587	292.947	
177.411	188.685	289.956	
175.819	191.148	293.287	
176.499	188.885	286.279	
177.446	185.146	284.943	
178.243	187.666	280.948	
180.798	185.171	286.923	
183.176	184.41	283.281	
181.796	188.22	281.945	
186.154	184.348	285.664	
188.55	186.639	282.482	
185.841	189.926	281.98	
190.802	187.119	285.466	
191.891	191.005	283.111	
187.758	193.587	283.083	
193.915	192.89	285.841	
192.825	196.982	284.116	
187.976	197.724	285.049	
194.72	198.565	287.17	
192.124	202.228	286.993	
188.793	199.799	288.217	
194.623	203.137	289.765	
191.021	203.159	292.396	
189.905	198.725	291.703	
193.664	204.196	294.842	
192.295	201.305	298.031	
189.151	204.059	298.774	
192.038	198.759	295.274	
187.729	198.176	296.942	
185.834	202.773	296.313	
187.146	195.606	294.227	
183.192	196.518	293.294	
183.526	200.416	290.317	
181.074	193.429	293.775	
177.914	193.996	290.479	
174.881	196.703	293.046	
180.484	195.787	288.351	
177.727	199.272	288.408	
177.989	198.746	292.693	
176.4	201.035	285.282	
180.333	203.246	284.936	
182.893	200.299	286.774	
179.64	202.585	281.33	
183.923	202.063	280.064	
184.703	198.854	282.737	
182.087	200.943	277.003	
185.663	198.257	275.985	
185.723	194.982	279.64	
183.625	196.607	273.201	
185.962	192.876	273.425	
184.74	191.019	277.766	
183.164	191.829	271.064	
183.839	187.718	273.155	
181.807	189.258	276.514	
181.366	186.214	270.744	
180.032	183.065	273.855	
178.647	186.265	276.161	
177.24	182.089	271.43	
174.529	181.653	275.142	
174.524	185.845	275.616	
171.729	180.503	272.873	
168.668	182.441	275.552	
170.088	186.381	274.966	
166.43	181.586	272.604	
163.752	185.108	274.004	
166.807	187.859	273.063	
162.048	185.635	270.723	
159.777	189.101	271.967	
163.444	191.434	270.094	
157.79	188.02	268.948	
158.085	192.511	267.597	
162.079	191.83	266.332	
155.462	191.788	264.868	
159.008	193.13	262.216	
161.992	189.439	263.355	
157.1	192.546	258.868	
160.82	190.189	257.776	
160.591	186.672	261.078	
158.955	189.158	254.51	
160.943	185.121	255.598	
158.17	184.918	258.716	
159.781	183.508	252.343	
158.574	179.638	254.459	
155.97	181.207	257.656	
156.981	178.86	251.122	
153.488	177.169	253.059	
151.657	180.317	256.482	
-11.8605	340.091	74.1225	
