84.2375	170.244	-262.004	
87.2961	167.857	-261.41	
81.0502	168.083	-261.226	
82.649	169.152	-257.097	
78.7719	167.537	-255.06	
85.1156	166.365	-256.581	
84.3393	166.38	-252.006	
80.5668	164.786	-252.727	
87.0192	163.788	-252.204	
84.1477	161.216	-249.503	
80.3983	159.674	-252.289	
86.289	158.053	-249.474	
82.8883	155.485	-247.601	
80.4231	155.267	-251.709	
85.2083	152.455	-247.65	
81.613	150.122	-249.347	
80.827	151.408	-254	
83.3804	146.709	-249.58	
80.4569	144.951	-252.564	
81.5527	147.919	-256.376	
79.2106	142.201	-251.468	
82.1217	138.781	-250.57	
83.388	141.144	-247.325	
79.2012	137.25	-251.376	
78.2501	133.243	-249.241	
81.311	130.031	-246.533	
75.9259	132.96	-252.062	
72.2625	134.234	-249.821	
73.3204	133.289	-245.302	
73.4209	137.885	-250.323	
71.6051	139.358	-246.561	
74.3775	137.194	-243.231	
73.4099	142.472	-247.629	
74.0642	143.833	-243.436	
77.0929	140.223	-241.937	
76.2488	146.687	-244.822	
79.7079	145.106	-241.915	
80.6283	141.088	-243.238	
82.8276	147.396	-242.757	
85.7441	144.487	-240.565	
86.2435	140.01	-242.637	
88.7154	146.732	-241.661	
90.8254	142.688	-242.41	
88.1869	140.872	-246.292	
93.9882	144.724	-242.318	
94.3833	145.215	-246.504	
90.2541	146.317	-247.19	
98.1354	145.375	-247.459	
98.8039	149.733	-246.038	
95.1876	149.568	-243.605	
102.158	150.042	-247.063	
101.843	146.117	-245.104	
99.9445	148.389	-241.823	
102.732	144.036	-247.452	
100.824	140.492	-248.223	
102.109	139.978	-252.975	
98.1457	138.633	-246.222	
98.8064	134.178	-247.346	
103.598	134.236	-248.859	
96.0392	132.485	-248.923	
95.4082	131.992	-244.291	
97.3048	134.857	-241.145	
92.1658	130.696	-242.792	
88.7713	132.296	-243.669	
87.4918	132.896	-248.456	
86.2987	130.842	-241.498	
86.693	134.215	-238.521	
84.4171	137.611	-241.244	
84.0222	132.785	-236.287	
82.6694	137.028	-235.41	
81.2596	137.458	-239.419	
80.3312	135.12	-232.999	
77.021	137.888	-234.236	
77.4648	136.783	-238.366	
74.4907	135.708	-232.299	
72.0576	135.683	-236.506	
74.6164	134.173	-239.787	
69.2236	133.017	-235.848	
68.4902	132.762	-240.395	
72.5979	130.701	-242.106	
65.8491	130.164	-239.299	
67.5075	127.712	-242.856	
71.4737	127.488	-241.208	
64.9439	125.42	-241.597	
67.7452	121.884	-242.552	
70.7963	123.748	-240.261	
65.5605	120.01	-240.317	
69.1986	117.314	-239.278	
71.7119	120.525	-236.654	
66.6488	115.757	-236.951	
70.4076	115.326	-234.173	
71.3797	119.859	-232.589	
68.3386	113.842	-231.259	
71.1504	115.958	-228.445	
70.2286	120.867	-228.473	
68.8113	114.051	-226.175	
68.9852	117.91	-223.736	
67.3746	121.02	-226.09	
67.3458	116.791	-220.433	
64.3584	120.304	-220.582	
63.3752	120.545	-224.683	
62.0824	118.54	-218.157	
58.5177	119.79	-220.695	
58.9727	123.724	-219.323	
60.4096	118.95	-223.87	
58.649	123.143	-225.079	
60.9499	126.248	-222.088	
60.6407	122.965	-228.339	
60.5329	127.526	-228.261	
63.1412	127.392	-224.81	
62.3104	127.447	-231.542	
62.9104	132.024	-231.238	
58.5971	133.673	-228.997	
66.5753	132.57	-230.63	
67.2855	132.07	-226.889	
66.0124	127.449	-226.578	
70.825	132.206	-228.537	
72.2931	129.105	-225.68	
69.804	126.068	-227.434	
75.4798	129.788	-227.314	
76.1978	125.242	-226.932	
72.8038	124.254	-229.343	
79.1771	126.013	-229.018	
78.8882	121.672	-230.658	
75.1444	122.348	-232.369	
81.5353	122.871	-233.105	
79.5987	119.915	-236.068	
75.2607	122.011	-237.27	
82.1305	121.074	-238.748	
78.7822	120.109	-241.823	
75.7719	123.823	-240.819	
81.287	121.169	-244.461	
77.631	121.933	-247.183	
76.1313	125.697	-244.39	
80.0599	122.278	-249.913	
78.043	126.422	-250.16	
78.6979	127.849	-245.345	
80.5759	127.303	-252.798	
81.4882	131.382	-252.628	
83.7818	131.976	-248.279	
82.0373	132.257	-256.121	
86.2825	132.37	-257.154	
84.7812	131.897	-261.283	
87.7659	135.065	-255.068	
85.968	138.373	-254.375	
87.9277	136.931	-250.683	
84.9086	141.932	-255.216	
81.9322	141.397	-258.016	
83.5541	145.621	-259.487	
84.0188	138.633	-259.791	
83.8091	140.828	-263.652	
86.0644	143.894	-261.707	
85.793	137.878	-265.073	
88.1926	140.828	-267.541	
89.4835	143.406	-264.38	
90.3494	137.746	-267.859	
93.7157	141.06	-268.397	
93.7831	143.275	-264.041	
96.8677	138.8	-268.071	
99.4294	142.277	-266.466	
97.8009	143.176	-261.835	
102.289	139.67	-266.021	
104.046	142.053	-262.655	
100.658	141.004	-260.307	
106.612	139.257	-263.086	
105.389	138.019	-258.971	
101.03	137.189	-260.031	
108.177	135.569	-259.699	
105.712	132.019	-258.207	
106.644	133.392	-254.29	
102.9	133.488	-260.18	
100.609	133.08	-256.164	
103.301	135.983	-253.151	
97.558	134.555	-257.825	
96.1163	136.898	-254.679	
98.9321	140.955	-254.848	
92.6222	135.886	-253.908	
90.8019	139.909	-252.607	
92.0408	139.643	-247.975	
93.0862	141.734	-254.976	
94.6056	143.862	-251.384	
95.2213	139.848	-249.884	
94.7995	147.702	-251.072	
98.5995	147.679	-253.576	
97.7521	144.152	-255.923	
96.9102	150.769	-254.855	
98.365	150.403	-259.112	
96.5794	146.6	-259.763	
95.8328	153.163	-259.402	
95.0921	151.974	-263.772	
93.22	147.438	-263.404	
92.0801	154.317	-263.956	
90.203	151.988	-267.194	
88.9737	147.799	-264.932	
87.4087	154.426	-266.339	
84.7685	150.741	-267.456	
85.7452	149.059	-263.758	
81.7553	152.946	-267.053	
79.1259	149.394	-265.787	
81.5412	149.085	-262.443	
76.3942	151.935	-264.953	
75.4845	149.349	-261.283	
79.082	150.546	-259.437	
72.5778	151.689	-260.427	
73.2387	151.013	-256.015	
77.1513	152.706	-255.987	
70.8321	153.905	-255.845	
72.6667	154.862	-251.695	
76.3126	155.917	-253.625	
71.5646	158.414	-251.574	
73.6203	159.374	-247.876	
77.0002	160.868	-250.832	
71.077	162.149	-248.018	
74.6732	165.078	-247.219	
75.8551	164.665	-251.228	
72.1845	167.927	-246.561	
74.4806	169.704	-250.097	
73.1282	166.362	-253.385	
72.3484	172.911	-250.224	
72.0416	171.88	-254.664	
69.6734	167.638	-254.29	
69.5588	174.799	-254.933	
67.3606	171.692	-257.592	
66.5286	169.731	-254.049	
64.6951	174.235	-258.702	
61.3642	171.186	-258.2	
62.0779	169.802	-254.092	
59.2136	174.281	-258.716	
56.4146	172.933	-255.626	
58.859	171.767	-251.454	
87.3373	246.193	-172.619	
86.9512	245.444	-176.43	
84.574	244.146	-170.823	
87.7759	241.032	-171.777	
85.6467	237.844	-169.098	
86.7291	239.979	-175.193	
88.2913	235.705	-174.578	
85.0909	235.022	-171.961	
87.2292	235.485	-178.127	
85.0307	231.537	-176.847	
81.062	232.784	-174.217	
83.3667	230.775	-180.178	
80.6331	227.561	-178.389	
77.7204	230.696	-176.282	
79.1433	227	-181.882	
75.0169	226.933	-179.761	
73.8737	231.553	-178.453	
72.9086	226.321	-182.9	
69.0381	227.837	-181.118	
70.377	232.617	-180.694	
66.7438	225.684	-181.302	
65.5484	224.153	-185.488	
69.3078	222.285	-185.509	
62.7654	223.833	-183.621	
59.95	220.216	-184.626	
59.741	217.234	-188.868	
57.6252	222.31	-182.702	
58.005	219.968	-178.884	
59.5008	215.658	-180.312	
61.2606	221.966	-178.212	
63.2162	218.674	-175.985	
63.9619	215.385	-179.45	
66.0771	221.129	-176.105	
69.1473	217.887	-176.105	
68.0809	215.8	-180.425	
71.8101	220.579	-176.685	
73.1666	218.048	-180.461	
69.7735	218.031	-183.162	
76.0202	220.271	-182.2	
75.7384	217.723	-186.103	
71.5104	218.18	-188.67	
78.3688	220.099	-187.68	
75.6886	219.776	-191.421	
71.5262	222.147	-189.894	
78.7307	221.066	-193.309	
77.6215	225.184	-193.408	
76.4705	225.351	-189.172	
78.9117	226.799	-196.597	
83.3211	227.176	-195.197	
82.6262	224.173	-192.064	
84.5774	228.892	-198.032	
82.0493	225.673	-199.538	
84.4343	223.104	-196.894	
79.7875	227.216	-201.313	
75.7984	226.327	-201.25	
73.9953	230.724	-202.586	
73.9842	223.324	-199.807	
70.1642	222.868	-202.395	
71.6544	225.249	-206.659	
66.9932	223.156	-200.762	
68.189	218.587	-200.444	
72.6193	217.18	-200.861	
66.3798	216.153	-198.223	
65.9325	216.958	-194.497	
63.9319	221.273	-193.033	
64.5263	213.843	-192.948	
68.6607	212.444	-191.81	
69.3668	215.727	-188.189	
67.2617	209.341	-190.106	
70.4985	209.807	-186.952	
68.6127	213.321	-185.418	
68.9584	206.499	-185.778	
69.288	207.95	-181.528	
66.9022	211.418	-182.405	
67.2491	204.939	-180.348	
64.4735	208.231	-178.177	
63.0096	211.216	-181.132	
61.3719	206.119	-176.89	
59.0286	210.06	-176.345	
58.3953	211.684	-180.913	
56.2711	207.684	-175.256	
53.5496	210.391	-177.809	
55.6832	209.526	-181.451	
51.1152	207.934	-176.628	
49.0486	208.115	-180.758	
52.7258	207.184	-182.554	
47.4691	204.879	-179.683	
47.2588	203.735	-184.173	
51.9817	202.935	-184.908	
45.8696	200.569	-182.66	
48.2467	198.646	-186.248	
52.975	198.975	-185.012	
47.3139	194.99	-185.072	
51.3836	193.759	-186.649	
54.9532	195.322	-183.51	
49.7489	190.508	-185.473	
53.9286	189.667	-183.829	
54.8278	192.625	-180.959	
53.6589	185.92	-182.966	
55.2018	186.732	-178.663	
53.2994	190.337	-177.623	
53.7956	183.457	-177.535	
52.2516	185.482	-173.725	
56.2175	185.752	-172.357	
51.1081	188.522	-175.766	
53.2936	190.787	-172.287	
57.9728	189.572	-172.838	
52.6274	194.013	-174.068	
56.337	195.578	-171.848	
58.7244	192.894	-174.252	
55.6801	198.881	-173.418	
59.7612	200.329	-171.82	
60.2326	198.106	-167.287	
62.0385	200.754	-174.839	
63.3998	197.192	-175.688	
59.2729	195.084	-176.748	
64.3476	199.453	-178.771	
63.6125	196.04	-181.528	
59.4054	196.093	-180.758	
64.882	198.459	-184.032	
61.6523	196.625	-186.811	
58.4069	197.764	-184.194	
62.6669	199.362	-189.024	
58.3818	199.3	-190.796	
56.6718	200.398	-187.164	
59.4459	202.403	-192.526	
55.049	203.728	-192.163	
54.4328	204.72	-187.369	
55.9806	207.081	-193.884	
52.5515	208.942	-191.301	
54.6661	208.684	-186.931	
53.3878	212.19	-193.019	
51.3672	214.231	-189.434	
54.8892	212.671	-186.337	
51.5969	217.389	-191.393	
54.0001	218.671	-187.666	
57.3525	214.858	-187.595	
54.7125	221.885	-189.476	
58.4506	223.319	-188.345	
61.6683	220.033	-190.148	
57.9862	226.935	-188.416	
59.4364	228.727	-192.078	
56.7623	232.075	-190.94	
63.111	228.091	-192.206	
65.329	228.313	-189.066	
66.4873	224.819	-191.513	
67.4147	230.106	-186.471	
64.5504	231.825	-184.01	
68.0827	235.003	-183.452	
62.5133	232.976	-187.143	
62.65	237.233	-185.934	
66.8585	236.942	-186.485	
60.5	237.829	-189.038	
62.9238	241.647	-189.752	
66.8287	239.891	-189.745	
61.204	241.268	-193.061	
65.0868	243.534	-194.532	
68.696	240.405	-193.599	
64.7209	243.1	-198.343	
69.2489	243.303	-199.015	
71.1719	239.073	-197.191	
68.5657	242.619	-202.777	
72.5998	240.707	-203.265	
71.2434	237.497	-200.783	
71.2449	240.64	-206.829	
71.3905	236.212	-206.348	
68.4398	236.021	-202.897	
70.2524	236.461	-209.954	
66.9581	233.415	-209.431	
70.0504	230.511	-209.693	
66.1342	235.148	-206.221	
66.4921	230.908	-204.481	
71.2188	229.755	-205.521	
65.7338	232.374	-201.045	
68.2775	230.04	-198.683	
72.6988	232.158	-199.305	
66.2966	228.269	-196.116	
69.3069	228.123	-192.616	
71.5083	224.076	-193.889	
70.814	231.433	-193.804	
74.6206	229.187	-194.129	
72.256	226.551	-196.604	
77.9289	230.257	-192.538	
78.4952	233.278	-195.861	
74.3731	234.098	-196.788	
79.7902	235.241	-192.948	
78.3966	239.287	-194.384	
74.2872	238.189	-194.56	
79.4318	240.02	-190.827	
76.3737	243.443	-190.664	
72.0604	241.132	-191.145	
76.9414	243.866	-186.902	
72.9177	245.577	-186.301	
69.9411	241.842	-187.207	
74.0768	245.145	-182.702	
69.5387	244.385	-182.094	
70.0956	240.609	-183.812	
70.2073	244.203	-178.382	
66.7276	241.256	-177.724	
68.8821	238.607	-180.072	
67.9795	240.884	-174.167	
66.9703	236.396	-174.599	
70.2265	235.896	-177.222	
68.0071	235.912	-170.964	
69.5075	231.731	-171.855	
72.5378	233.059	-174.563	
70.8984	232.12	-168.419	
74.1407	229.056	-169.592	
75.7408	231.847	-172.315	
76.6088	229.99	-166.983	
79.754	227.358	-168.397	
81.1999	231.242	-170.674	
80.8857	227.978	-164.89	
85.0598	228.908	-166.665	
83.6364	232.742	-167.874	
86.5876	228.834	-163.137	
87.5976	233.223	-164.346	
82.9665	234.762	-164.622	
89.2501	234.066	-160.952	
86.4542	237.623	-161.107	
82.183	235.345	-160.973	
87.6696	238.448	-157.522	
83.1497	239.359	-157.013	
82.6152	235.194	-157.211	
83.6371	240.744	-153.449	
79.9639	238.562	-151.943	
80.8033	234.435	-153.258	
81.3419	239.668	-148.598	
80.3212	235.84	-146.767	
82.1006	232.102	-149.539	
182.362	184.48	-200.755	
179.21	182.96	-202.515	
181.562	184.574	-196.972	
182.595	180.165	-197.728	
182.727	179.272	-193.203	
179.224	178.804	-198.754	
180.204	174.703	-197.007	
179.876	176.354	-193.196	
176.866	174.042	-198.541	
175.803	172.059	-194.285	
175.254	175.748	-191.081	
172.154	171.3	-195.07	
171.218	170.379	-190.678	
171.201	174.928	-189.292	
167.624	169.653	-191.69	
166.378	172.095	-187.935	
167.195	176.89	-188.889	
162.583	171.682	-188.352	
161.499	175.264	-185.792	
163.326	178.748	-188.79	
159.552	174.493	-183.473	
155.499	172.612	-184.583	
157.747	169.265	-185.792	
154.938	174.12	-181.578	
151.851	172.154	-178.742	
148.237	168.574	-179.69	
151.986	175.547	-177.293	
154.721	174.465	-173.892	
154.119	169.742	-173.333	
157.647	174.793	-176.388	
160.183	171.745	-174.365	
157.696	167.637	-175.207	
162.314	172.417	-177.385	
163.97	168.285	-177.448	
159.784	165.794	-178.445	
165.678	169.144	-180.8	
163.483	165.341	-182.646	
159.214	166.107	-182.278	
164.402	165.333	-186.436	
161.01	162.237	-187.419	
156.381	163.88	-186.754	
161.934	162.577	-191.188	
157.367	162.528	-191.817	
156.002	166.884	-189.717	
158.218	161.661	-195.395	
157.921	165.588	-196.95	
160.264	167.485	-193.853	
156.646	165.418	-200.564	
160.672	164.073	-202.402	
162.115	162.791	-198.549	
159.69	164.15	-205.796	
156.475	162.242	-203.682	
159.657	159.654	-201.928	
153.866	164.083	-204.241	
151.099	165.191	-201.412	
149.492	169.368	-203.548	
150.56	163.918	-197.834	
146.035	164.62	-197.085	
144.229	164.693	-201.743	
145.17	166.802	-194.355	
145.597	162.521	-192.474	
148.079	159.121	-194.461	
145.701	161.922	-188.699	
148.228	163.819	-186.499	
148.512	168.791	-186.719	
148.022	162.362	-183.197	
151.458	159.554	-184.053	
154.972	162.939	-183.89	
151.348	158.083	-180.574	
155.875	157.804	-180.673	
156.192	162.112	-180.602	
155.277	156.108	-177.349	
158.766	158.331	-175.659	
156.991	162.116	-176.664	
157.913	157.134	-172.173	
158.057	161.762	-170.922	
155.308	164.141	-173.489	
156.658	161.859	-167.294	
156.01	166.397	-167.648	
152.431	166.757	-170.964	
154.636	165.958	-164.049	
151.287	168.797	-165.527	
149.949	166.059	-168.567	
150.199	168.193	-162.069	
145.835	168.173	-163.561	
146.849	165.171	-166.361	
145.12	166.496	-160.28	
141.552	164.375	-162.345	
144.081	161.315	-165.145	
141.342	162.831	-158.979	
140.045	159.065	-161.475	
144.164	157.479	-163.617	
139.793	156.769	-158.357	
141.227	153.393	-160.987	
146.092	153.899	-161.935	
140.573	151.779	-157.621	
144.449	149.573	-158.583	
147.533	152.414	-158.823	
144.437	146.812	-155.889	
148.719	147.99	-154.566	
148.636	152.145	-154.687	
148.167	146.153	-151.201	
150.183	149.684	-149.115	
153.887	148.419	-150.621	
148.302	152.166	-151.3	
152.637	154.056	-151.597	
155.193	150.702	-154.071	
151.295	156.57	-154.05	
155.586	156.722	-155.592	
155.087	152.699	-157.063	
154.43	159.381	-157.968	
158.521	159.126	-160.103	
161.868	158.304	-156.313	
157.894	157.561	-163.469	
157.7	153.705	-162.946	
153.922	153.6	-160.117	
156.402	154.316	-166.601	
153.457	151.035	-166.106	
151.206	153.257	-163.186	
152.776	151.755	-169.642	
148.343	150.918	-168.482	
148.243	154.184	-165.703	
147.755	152.139	-171.961	
143.583	153.593	-170.526	
145.243	156.349	-167.874	
143.441	155.267	-173.955	
140.921	158.502	-171.848	
144.149	160.933	-168.977	
140.751	160.428	-175.214	
140.566	164.308	-172.654	
145.136	164.282	-170.957	
140.291	166.132	-175.879	
141.829	169.775	-173.51	
146.224	167.687	-172.838	
140.975	171.796	-176.572	
145.456	172.777	-176.31	
147.268	168.056	-176.239	
145.037	174.651	-179.563	
148.543	174.424	-181.825	
148.966	169.656	-183.056	
148.663	177.653	-183.494	
147.159	177.427	-187.553	
146.655	181.833	-187.1	
149.468	175.147	-189.363	
153.278	175.185	-188.84	
151.822	171.044	-189.193	
156.81	176.444	-189.377	
156.9	179.919	-187.171	
160.07	181.069	-190.53	
153.38	180.922	-188.486	
154.923	184.775	-190.035	
157.3	182.432	-192.715	
151.275	185.396	-191.039	
152.883	187.301	-194.949	
155.277	183.967	-196.215	
149.253	186.873	-195.861	
151.095	186.545	-200.175	
153.759	182.459	-199.977	
147.978	185.266	-202.134	
150.553	183.126	-205.245	
152.615	179.176	-202.968	
147.244	181.795	-206.779	
149.359	178.198	-208.413	
149.866	176.836	-204.389	
145.836	177.775	-209.834	
145.709	174.116	-207.267	
146.239	176.293	-203.279	
142.349	173.875	-209.015	
140.145	173.018	-205.202	
141.635	169.019	-205.516	
142.152	175.754	-203.668	
143.122	172.515	-200.472	
145.358	169.028	-203.222	
145.314	175.071	-198.718	
148.431	172.57	-197.488	
151.194	172.076	-201.483	
148.772	172.74	-193.776	
153.305	172.172	-193.273	
153.324	167.385	-193.167	
153.888	173.901	-196.576	
155.883	170.137	-197.848	
152.161	168.35	-196.59	
159.42	169.964	-199.34	
157.731	171.258	-203.307	
154.429	173.638	-201.907	
161.013	173.143	-203.286	
159.569	176.802	-205.506	
156.535	177.746	-202.671	
162.932	177.906	-204.283	
161.438	182.239	-204.248	
157.904	182.197	-200.818	
164.631	183.408	-202.487	
162.582	186.861	-200.663	
159.475	184.899	-197.551	
165.95	186.974	-198.881	
163.245	188.609	-195.423	
161.898	184.716	-194.801	
166.396	189.207	-193.471	
164.169	188.549	-189.498	
163.559	184.672	-190.756	
167.561	188.624	-187.737	
166.003	185.245	-185.078	
166.174	182.542	-188.324	
169.306	185.387	-183.162	
169.074	180.884	-182.37	
169.331	179.87	-186.514	
172.582	181.52	-181.196	
173.497	177.146	-182.264	
172.949	177.977	-186.344	
177.184	177.492	-182.525	
177.923	173.432	-183.834	
177.719	175.338	-188.083	
181.34	174.39	-182.568	
182.934	172.711	-186.62	
181.602	176.264	-188.592	
186.539	172.956	-185.311	
186.906	175.79	-188.896	
183.774	179.166	-187.256	
190.609	176.705	-188.232	
189.068	180.935	-188.592	
185.984	181.033	-184.816	
192.608	182.067	-187.539	
190.072	185.074	-185.071	
189.016	181.765	-182.667	
193.16	186.982	-183.855	
191.521	187.283	-179.605	
190.599	183.088	-178.75	
195.036	188.512	-178.905	
195.21	186.313	-175.207	
193.883	181.535	-175.907	
133.041	208.734	-333.952	
130.357	206.013	-334.822	
132.242	209.946	-330.332	
134.361	205.98	-329.738	
134.674	206.722	-325.121	
131.433	203.628	-329.986	
133.35	200.668	-326.924	
132.627	203.437	-323.897	
130.278	198.768	-327.843	
129.751	198.255	-323.176	
128.301	202.562	-321.302	
126.4	196.451	-323.303	
125.734	196.958	-318.813	
124.596	201.558	-319.075	
122.399	195.078	-319.138	
120.596	198.332	-316.374	
120.188	202.495	-318.912	
117.046	196.977	-316.352	
115.114	200.876	-315.073	
116.023	203.405	-319.216	
113.404	200.516	-312.421	
109.919	197.458	-312.428	
112.916	194.511	-312.633	
109.024	199.787	-310.151	
106.497	198.258	-306.517	
103.873	193.845	-305.852	
105.794	201.864	-306.29	
108.747	202.756	-303.052	
109.33	198.541	-300.895	
111.486	202.824	-305.725	
114.683	201.345	-303.002	
113.304	196.793	-302.26	
116.582	201.384	-306.262	
119.211	198.005	-305.046	
115.757	194.414	-304.791	
120.646	197.976	-308.596	
119.433	193.353	-308.822	
115.146	193.273	-308.489	
120.353	192.283	-312.541	
117.824	188.346	-312.124	
112.92	188.989	-311.615	
118.63	187.538	-315.815	
114.198	186.193	-315.942	
111.834	190.629	-315.405	
115.244	184.382	-319.11	
113.988	187.311	-321.868	
115.79	190.647	-319.775	
112.811	185.655	-325.163	
117.031	184.672	-326.733	
118.731	185.169	-322.766	
116.044	183.316	-329.816	
113.383	181.561	-326.867	
117.123	180.602	-324.696	
110.422	182.479	-327.836	
107.461	183.821	-325.326	
104.902	186.531	-328.642	
107.286	183.856	-321.564	
102.703	183.661	-320.63	
100.941	181.698	-324.908	
101.341	186.432	-318.771	
102.788	183.261	-315.561	
106.047	180.089	-316.536	
103.056	184.102	-311.869	
105.023	187.147	-310.653	
104.09	191.654	-312.591	
105.203	186.953	-307.054	
109.202	184.857	-307.153	
111.786	188.819	-308.511	
109.479	184.754	-303.427	
113.921	185.488	-303.823	
113.178	189.51	-305.237	
113.767	184.989	-300.089	
116.63	188.439	-299.629	
113.954	191.078	-301.652	
116.067	188.315	-295.776	
115.094	193.041	-296.271	
111.843	193.652	-299.205	
113.701	194.042	-292.707	
111.947	197.871	-294.51	
108.389	196.21	-297.444	
110.743	198.452	-290.932	
106.818	199.771	-293.025	
106.163	195.862	-294.757	
105.903	200.161	-289.468	
101.653	198.589	-290.409	
103.373	195.122	-292.127	
101.386	198.065	-286.753	
98.4569	194.612	-287.672	
101.636	191.405	-289.426	
98.6039	194.307	-283.903	
98.2896	189.736	-284.907	
102.679	188.517	-286.739	
98.6271	188.725	-281.231	
100.826	185.039	-282.616	
105.434	186.314	-284.158	
100.594	184.609	-278.862	
104.903	183.167	-279.371	
107.191	186.361	-280.835	
105.565	181.592	-275.878	
109.403	184.063	-275.354	
108.338	187.838	-277.002	
109.34	183.496	-271.635	
110.417	187.862	-270.992	
114.317	187.039	-272.3	
108.009	188.967	-273.785	
111.715	191.506	-274.966	
115.041	188.23	-276.422	
109.806	192.64	-278.049	
113.937	193.252	-279.979	
114.43	188.958	-279.915	
112.165	194.561	-282.984	
116.187	194.525	-285.247	
119.622	195.84	-281.683	
115.975	191.806	-287.849	
116.727	188.424	-286.018	
113.06	188.402	-282.92	
115.296	187.372	-289.482	
113.261	183.918	-287.693	
110.528	186.418	-285.48	
112.418	183.164	-291.172	
108.325	181.803	-289.447	
107.435	185.722	-287.913	
107.453	181.556	-293.067	
103.049	182.408	-291.844	
104.006	186.248	-290.444	
102.5	182.684	-295.556	
99.2592	185.78	-294.496	
101.825	189.794	-292.99	
98.6409	186.333	-298.286	
97.5051	190.704	-297.19	
101.927	192.307	-295.995	
96.7851	191.177	-300.817	
97.3992	195.68	-300.004	
102.17	195.024	-299.035	
96.0566	196.235	-303.448	
100.162	198.225	-303.914	
103.071	194.382	-302.394	
99.2811	198.66	-307.514	
102.74	198.492	-309.89	
104.318	193.833	-309.458	
102.062	200.876	-312.548	
100.68	198.922	-316.204	
99.0994	202.945	-317.187	
103.456	196.723	-317.286	
107.154	197.838	-317.159	
106.756	193.609	-315.928	
110.255	199.567	-318.354	
109.482	203.508	-317.449	
112.28	204.129	-321.309	
105.851	203.203	-318.82	
106.379	206.474	-321.663	
109.252	203.942	-323.551	
102.69	205.845	-322.497	
103.794	206.596	-326.952	
106.922	203.671	-327.214	
100.375	205.034	-327.327	
102.236	203.657	-331.407	
105.827	200.637	-330.106	
99.5272	201.106	-332.566	
102.556	198.672	-334.999	
105.517	196.35	-331.711	
99.6842	196.198	-335.748	
102.582	192.77	-336.137	
103.402	193.056	-331.944	
99.2985	191.138	-337.071	
100.069	188.685	-333.436	
100.033	192.151	-330.452	
96.8514	187.04	-334.631	
94.9336	187.11	-330.579	
97.3424	183.686	-329.653	
96.186	190.559	-330.219	
97.9346	188.962	-326.202	
100.957	185.347	-327.822	
99.4244	192.388	-325.601	
103.068	191.273	-323.897	
105.88	190.082	-327.765	
103.376	192.842	-320.546	
107.897	193.514	-320.249	
109.096	189.229	-318.552	
108.063	194.112	-324.032	
110.919	190.708	-324.138	
107.739	188.649	-321.995	
114.373	190.804	-325.722	
112.415	190.203	-329.766	
108.618	192.069	-328.918	
115.133	192.684	-330.643	
112.836	194.892	-333.839	
109.647	196.014	-331.209	
115.838	197.102	-333.394	
113.301	200.682	-334.674	
109.892	201.025	-331.131	
116.127	203.108	-333.705	
113.324	206.457	-333.054	
110.756	204.993	-329.102	
116.52	207.895	-331.626	
113.517	209.988	-328.769	
113.159	206.365	-326.712	
116.44	211.974	-327.426	
114.43	212.237	-323.254	
114.769	208.089	-322.999	
117.696	213.683	-321.924	
116.997	211.155	-318.099	
117.848	207.642	-320.291	
120.192	212.756	-316.671	
121.08	208.92	-314.457	
121.566	206.573	-317.943	
124.323	210.697	-313.842	
126.267	206.529	-313.369	
125.516	205.714	-317.42	
129.758	207.608	-314.083	
131.473	203.638	-313.977	
130.81	203.849	-318.651	
134.559	205.743	-313.439	
136.51	203.163	-316.819	
134.324	205.356	-319.69	
139.936	204.655	-315.935	
139.579	206.037	-320.291	
135.733	208.976	-319.669	
142.962	207.978	-320.312	
140.424	211.322	-321.939	
137.44	212.073	-318.255	
143.596	213.556	-321.67	
140.378	216.541	-320.128	
140.197	214.188	-316.741	
142.942	219.462	-319.994	
141.265	220.838	-315.964	
141.405	217.1	-313.616	
144.397	223.023	-316.041	
145.077	222.32	-311.785	
144.954	217.427	-310.71	
84.5804	304.857	-255.987	
88.2397	304.076	-257.097	
83.141	301.524	-254.502	
85.8189	303.163	-251.178	
84.1688	300.025	-248.216	
89.1416	301.718	-252.183	
90.4458	301.357	-247.742	
87.7134	298.264	-247.261	
93.5535	300.199	-249.453	
93.4088	296.609	-246.413	
89.7489	293.57	-247.763	
96.4125	294.711	-247.827	
95.4236	290.938	-245.366	
91.7739	289.657	-248.159	
98.4845	289.22	-246.879	
95.7833	285.522	-247.473	
92.6243	286.39	-251.129	
98.4179	283.225	-248.993	
95.4806	280.397	-250.931	
93.5727	283.573	-254.226	
95.9782	277.399	-250.026	
100.112	275.559	-250.966	
101.593	278.224	-248.06	
97.9758	272.939	-250.91	
99.6756	268.863	-249.347	
104.612	267.352	-248.753	
96.7006	267.69	-251.143	
94.1842	267.192	-247.459	
97.3534	266.701	-243.895	
93.4742	270.982	-247.643	
93.0378	271.446	-243.216	
97.582	270.717	-241.717	
92.8103	275.072	-244.291	
94.609	276.508	-240.452	
99.1306	274.599	-240.975	
94.6838	280.057	-242.007	
99.3413	280.144	-241.017	
101.096	276.943	-243.337	
100.63	283.556	-242.509	
105.09	282.181	-242.177	
106.362	278.385	-245.111	
106.158	285.492	-243.867	
109.138	282.792	-246.13	
106.067	280.074	-249.029	
110.977	286.058	-246.908	
109.29	286.696	-250.733	
105.22	285.927	-249.616	
111.877	288.477	-252.989	
111.308	292.651	-251.072	
109.472	290.911	-247.558	
113.495	294.418	-253.257	
115.609	290.821	-252.204	
114.598	291.969	-248.039	
116.146	289.27	-254.976	
115.655	285.3	-255.69	
114.858	285.401	-260.526	
115.078	282.441	-253.222	
116.885	278.752	-255.372	
120.123	280.899	-258.539	
114.633	276.01	-256.043	
116.276	275.217	-251.666	
118.019	278.595	-249.001	
114.784	272.592	-249.312	
111.019	272.651	-248.598	
107.68	272.627	-252.267	
110.513	270.175	-245.903	
110.794	273.361	-242.721	
106.424	275.451	-243.662	
110.137	270.882	-239.964	
107.733	274.099	-237.814	
104.678	273.887	-240.798	
107.594	271.379	-235.148	
103.268	272.406	-234.441	
102.302	271.633	-238.564	
102.911	269.347	-232.179	
99.1583	268.247	-235.007	
100.425	268.022	-239.235	
98.1705	264.596	-233.854	
95.743	264.112	-237.751	
99.1456	264.025	-241.215	
95.0753	260.635	-236.287	
95.8336	259.169	-240.572	
99.8942	260.662	-240.643	
95.2018	256.014	-238.953	
98.4608	254.059	-241.562	
101.22	257.038	-240.289	
98.3881	251.333	-239.009	
102.845	250.532	-240.02	
104.777	254.519	-238.005	
102.357	247.988	-237.234	
106.806	249.274	-236.301	
106.483	253.714	-234.314	
106.936	246.978	-233.133	
109.593	250.081	-231.238	
106.899	254.095	-229.958	
109.419	247.3	-228.643	
109.086	250.823	-225.758	
105.554	252.944	-226.677	
109.623	249.052	-222.357	
105.734	250.938	-220.688	
103.106	250.765	-223.99	
105.612	248.306	-217.937	
101.15	247.918	-218.666	
100.572	251.656	-216.848	
101.632	248.032	-222.427	
98.0461	251.041	-222.039	
99.9718	254.836	-219.627	
98.3728	251.767	-225.772	
96.4952	255.815	-224.761	
100.135	256.799	-222.654	
96.5854	256.571	-228.445	
95.4122	260.939	-227.512	
92.1898	260.537	-223.531	
98.4233	263.054	-228.275	
100.799	262.809	-225.178	
101.721	258.146	-225.362	
102.943	264.503	-228.014	
106.584	262.368	-226.628	
104.974	258.521	-227.794	
108.168	264.393	-229.173	
110.745	260.635	-230.008	
107.331	258.262	-231.082	
111.965	262.649	-232.886	
112.727	258.65	-235.12	
108.657	257.619	-235.078	
113.347	260.823	-238.019	
111.66	257.38	-240.572	
106.813	257.386	-239.596	
112.134	259.523	-243.711	
108.464	257.306	-245.486	
104.984	259.217	-242.601	
108.963	259.329	-248.576	
104.524	258.421	-249.46	
103.023	261.101	-245.628	
105.183	259.862	-252.833	
101.817	262.712	-251.483	
103.84	264.197	-247.063	
102.392	264.608	-254.643	
101.615	268.682	-254.049	
105.089	270.179	-250.874	
100.219	269.725	-257.238	
103.177	271.667	-259.734	
100.368	270.643	-263.015	
104.218	274.691	-257.868	
101.763	276.958	-256.001	
105.508	276.486	-253.689	
99.158	279.687	-255.647	
95.7386	277.864	-257.097	
94.7796	282.443	-258.278	
97.7378	276.367	-260.081	
95.0544	278.259	-263.037	
96.5446	282.02	-261.58	
97.2338	276.454	-265.632	
96.9746	280.245	-268.276	
98.3586	283.022	-265.321	
99.798	278.435	-269.987	
101.036	282.84	-271.069	
102.046	284.829	-266.721	
104.582	282.181	-272.413	
106.033	286.414	-271.274	
106.327	286.464	-266.275	
109.55	285.387	-272.526	
111.497	288.239	-269.648	
110.149	285.744	-266.402	
114.488	286.88	-271.593	
115.727	285.185	-267.633	
112.069	282.529	-267.095	
118.665	284.134	-269.761	
118.666	279.895	-268.199	
120.574	281.48	-264.741	
114.994	280.015	-268.658	
115.018	278.597	-264.218	
117.304	282.356	-261.941	
111.207	278.617	-264.267	
110.459	280.061	-260.42	
111.097	284.926	-260.838	
108.352	277.571	-258.539	
105.865	280.403	-255.916	
108.954	280.694	-252.282	
105.963	283.033	-258.539	
107.89	285.611	-255.485	
110.629	282.274	-255.167	
106.723	289.15	-254.558	
108.726	290.778	-258.228	
108.427	287.342	-260.788	
105.596	292.838	-258.151	
105.105	293.187	-262.619	
104.861	288.984	-263.27	
101.83	294.555	-261.375	
99.8163	293.187	-265.264	
100.256	288.328	-265.151	
96.3698	294.017	-263.864	
94.4032	291.111	-266.516	
95.9824	286.786	-264.804	
91.5078	292.056	-264.175	
90.3251	287.628	-264.925	
93.3651	286.493	-262.266	
87.1573	288.281	-262.973	
86.9975	283.964	-261.559	
90.4855	284.685	-259.473	
84.1205	285.021	-259.254	
85.9796	282.241	-256.065	
89.187	284.896	-255.555	
83.0343	283.06	-253.717	
85.7262	282.722	-250.118	
88.2945	285.95	-251.27	
82.7209	284.237	-248.47	
85.5994	285.922	-245.288	
87.3519	288.438	-248.173	
83.374	288.628	-244.058	
86.2387	290.33	-241.293	
87.1623	293.21	-244.984	
83.0215	291.697	-239.879	
85.1683	295.896	-239.978	
84.5559	296.135	-244.178	
82.2984	297.365	-237.878	
81.9565	300.053	-241.661	
80.7466	296.497	-244.779	
78.9098	302.016	-240.353	
77.1451	300.879	-244.341	
77.0474	296.11	-243.994	
73.8709	302.508	-243.153	
72.151	298.749	-245.288	
73.7751	296.562	-242.127	
68.5263	299.911	-244.822	
67.2042	295.661	-243.648	
70.1048	294.705	-240.48	
64.031	297.485	-242.665	
63.5969	295.033	-239.066	
67.8551	295.049	-236.499	
174.006	198.087	-257.354	
175.991	200.306	-259.814	
174.971	199.238	-253.753	
172.005	202.421	-255.167	
171.748	204.236	-250.895	
174.309	204.753	-256.945	
171.684	208.385	-255.819	
172.984	208.037	-251.935	
174.276	210.094	-257.993	
174.573	213.21	-254.438	
176.94	211.068	-250.726	
177.421	215.281	-255.888	
178.093	217.506	-251.928	
180.256	213.832	-249.785	
180.911	219.488	-253.611	
183.36	218.768	-249.757	
184.744	214.025	-249.637	
186.502	220.612	-250.832	
189.242	218.556	-247.848	
189.046	214.057	-249.863	
190.789	220.676	-246.087	
193.457	223.798	-248.131	
189.849	225.408	-249.531	
194.802	223.348	-245.02	
196.846	227.108	-243.146	
198.377	231.58	-245.295	
198.335	224.427	-241.046	
195.614	224.994	-237.531	
194.036	229.481	-237.97	
193.012	222.846	-239.419	
189.526	224.949	-237.644	
189.807	229.335	-239.646	
187.732	222.661	-240.098	
184.391	225.595	-240.643	
186.923	229.301	-242.813	
183.043	223.319	-243.429	
183.167	227.134	-246.285	
187.343	228.348	-246.54	
182.137	225.851	-249.892	
183.684	229.75	-251.963	
188.575	230.462	-251.73	
182.777	228.159	-255.35	
186.766	230.029	-256.687	
190.106	227.333	-254.099	
185.41	229.579	-260.159	
187.381	225.934	-261.057	
186.339	224.029	-257.288	
188.213	225.715	-264.79	
183.922	224.763	-266.204	
182.267	226.176	-262.414	
184.625	224.341	-269.613	
186.76	227.918	-268.418	
182.826	229.103	-266.671	
189.854	227.258	-268.998	
192.989	228.126	-266.537	
196.181	224.675	-268.071	
193.086	230.275	-263.355	
197.479	231.804	-263.228	
198.862	231.439	-268.085	
199.416	230.939	-260.321	
197.206	234.951	-259.225	
193.331	236.339	-261.375	
197.079	236.33	-255.69	
195.812	234.057	-252.777	
197.787	229.537	-252.027	
195.539	236.264	-249.87	
191.163	237.043	-250.676	
189.559	232.507	-249.326	
190.798	239.172	-247.6	
186.618	237.373	-247.007	
188.307	233.557	-246.073	
186.598	239.957	-244.213	
184.609	236.892	-241.64	
187.834	234.099	-242.163	
185.036	239.192	-238.585	
187.085	235.34	-236.513	
190.436	233.846	-238.96	
188.575	236.741	-233.14	
191.214	233.013	-232.787	
194.346	233.417	-236.527	
192.417	234.735	-229.562	
196.609	233.376	-231.047	
196.375	235.651	-234.71	
197.479	235.144	-227.95	
201.265	236.722	-230.064	
198.85	238.239	-233.211	
201.358	239.281	-227.377	
203.449	242.164	-230.34	
199.622	243.076	-233.161	
203.147	244.462	-227.37	
202.406	247.617	-230.665	
197.91	246.75	-232.391	
201.803	250.513	-228.176	
198.82	252.186	-231.047	
194.668	249.414	-231.139	
198.896	254.738	-228.233	
194.379	254.734	-228.94	
192.914	250.876	-228.205	
193.291	257.811	-226.819	
190.113	255.286	-224.655	
192.053	251.585	-224.061	
189.958	257.817	-221.834	
189.904	254.443	-218.842	
185.927	253.555	-219.903	
192.548	252.483	-220.773	
189.567	249.02	-220.03	
185.616	250.256	-222.633	
191.741	246.785	-222.152	
187.878	244.353	-222.937	
186.433	247.792	-225.206	
189.972	242.001	-224.917	
186.133	240.012	-226.437	
182.987	240.163	-222.364	
185.745	240.8	-230.05	
184.192	244.35	-230.298	
187.681	246.794	-228.134	
185.418	243.553	-233.911	
186.604	247.848	-234.547	
189.772	247.554	-231.662	
187.299	246.631	-237.941	
190.943	249.524	-237.715	
192.689	247.446	-234.399	
191.81	247.905	-240.947	
196.265	248.762	-239.957	
196.2	246.309	-236.598	
196.929	246.59	-242.919	
200.766	245.297	-240.706	
199.185	242.479	-237.008	
201.581	242.949	-243.605	
203.685	240.273	-240.487	
199.688	238.629	-238.111	
204.556	237.982	-243.308	
204.989	234.711	-240.126	
200.148	234.746	-239.122	
206.464	232.586	-242.785	
202.942	229.867	-241.668	
199.2	233.244	-242.17	
203.991	227.702	-244.574	
200.614	225.814	-246.2	
198.025	229.53	-248.237	
201.891	222.586	-247.226	
202.856	222.397	-251.433	
205.337	218.915	-250.238	
199.665	222.99	-253.222	
196.333	221.459	-252.112	
195.738	225.649	-253.448	
193.724	218.72	-251.829	
195.386	216.218	-249.064	
192.894	213.043	-251.645	
198.878	216.487	-250.761	
199.171	212.114	-251.292	
195.818	212.506	-253.901	
202.622	212.872	-252.727	
201.837	209.652	-255.909	
198.13	211.212	-257.401	
204.81	211.381	-257.45	
202.766	209.842	-261.361	
198.535	212.252	-261.531	
204.833	211.8	-264.005	
201.381	211.801	-267.004	
197.889	214.895	-265.222	
203.644	214.022	-269.323	
200.022	215.909	-271.197	
199.188	217.803	-267.428	
202.889	217.454	-273.233	
201.494	221.297	-271.451	
202.23	220.072	-267.053	
204.25	222.531	-273.672	
206.069	225.163	-270.482	
202.89	227.856	-271.296	
205.6	222.249	-268.149	
203.455	225.415	-265.49	
199.728	226.84	-268.524	
202.773	222.673	-262.973	
198.946	223.805	-261.785	
196.02	222.057	-265.328	
198.935	224.366	-258.052	
194.672	223.023	-256.963	
192.509	227.236	-257.79	
194.76	220.514	-259.798	
191.212	222.628	-261.439	
193.779	226.094	-261.113	
187.891	220.937	-262.301	
189.71	219.487	-266.183	
193.824	219.234	-264.91	
187.673	216.499	-265.264	
190.478	213.418	-266.953	
193.789	214.592	-264.564	
188.055	211.281	-265.065	
191.392	208.18	-264.527	
194.682	210.5	-261.721	
189.185	206.239	-262.079	
192.666	204.488	-260.017	
194.724	208.312	-257.797	
189.84	203.393	-257.711	
193.172	203.884	-254.488	
192.661	208.058	-254.806	
190.763	202.491	-251.949	
192.682	204.976	-248.555	
191.41	208.372	-250.634	
189.798	203.84	-246.314	
189.81	208.12	-244.581	
188.228	209.581	-248.209	
187.073	207.08	-242.184	
185.278	211.21	-242.333	
184.343	211.072	-246.455	
182.496	209.412	-240.473	
179.662	212.664	-242.184	
180.292	211.215	-246.094	
176.515	210.693	-241.788	
173.933	213.621	-243.655	
174.737	210.993	-247.509	
171.401	211.596	-241.724	
169.003	211.421	-245.762	
171.661	208.425	-247.169	
165.984	210.012	-243.825	
166.736	206.516	-246.759	
171.142	205.287	-245.055	
163.884	204.296	-245.3	
167.149	201.15	-245.119	
170.151	203.23	-241.958	
164.563	198.872	-243.294	
168.346	197.944	-240.791	
167.914	201.795	-239.228	
166.546	195.226	-238.813	
168.375	196.613	-234.858	
167.34	200.901	-234.915	
165.848	194.218	-233.388	
164.929	196.986	-230.177	
163.904	201.53	-231.988	
-314.499	-141.668	48.1425	
