-189.554	-12.17	-262.004	
-189.017	-8.32799	-261.41	
-186.089	-13.85	-261.226	
-187.815	-13	-257.097	
-184.477	-15.55	-255.06	
-186.634	-9.46999	-256.581	
-186.259	-10.15	-252.006	
-182.992	-12.62	-252.727	
-185.354	-6.53299	-252.204	
-181.691	-7.73399	-249.503	
-178.481	-10.21	-252.289	
-180.022	-4.29799	-249.474	
-176.098	-5.95899	-247.601	
-174.677	-7.98499	-251.709	
-174.634	-2.43499	-247.65	
-170.816	-4.38199	-249.347	
-171.537	-5.70599	-254	
-168.744	-1.14499	-249.58	
-165.76	-2.79799	-252.564	
-168.878	-3.33299	-256.376	
-162.755	-2.50199	-251.468	
-161.249	1.72901	-250.57	
-163.929	1.64401	-247.325	
-158.463	-0.0348315	-251.376	
-154.517	1.14501	-249.241	
-153.265	5.40201	-246.533	
-153.11	-0.726292	-252.062	
-152.382	-4.53599	-249.821	
-152.092	-3.14699	-245.302	
-156.122	-5.35799	-250.323	
-156.49	-7.66699	-246.561	
-156.002	-4.18399	-243.231	
-160.089	-7.66099	-247.629	
-161.595	-7.77499	-243.436	
-159.983	-3.34699	-241.937	
-165.159	-7.30999	-244.822	
-165.52	-3.52399	-241.915	
-162.5	-0.717991	-243.238	
-169.062	-1.96699	-242.757	
-168.002	2.01301	-240.565	
-164.374	4.68401	-242.637	
-171.431	3.46401	-241.661	
-168.984	7.31301	-242.41	
-166.092	5.93601	-246.292	
-172.329	9.03401	-242.318	
-172.951	9.13101	-246.504	
-171.841	5.00401	-247.19	
-174.967	12.3	-247.459	
-179.075	10.7	-246.038	
-177.123	7.65101	-243.605	
-181.019	13.45	-247.063	
-177.463	15.14	-245.104	
-178.481	12.36	-241.823	
-176.105	16.95	-247.452	
-172.082	17.07	-248.223	
-172.28	18.44	-252.975	
-169.133	15.68	-246.222	
-165.604	18.48	-247.346	
-168.051	22.6	-248.859	
-162.755	16.93	-248.923	
-162.012	16.63	-244.291	
-165.442	16.84	-241.145	
-159.269	14.47	-242.792	
-158.958	10.73	-243.669	
-158.837	9.32201	-248.456	
-156.462	9.31601	-241.498	
-159.58	7.97101	-238.521	
-161.383	4.30201	-241.244	
-157.006	6.37301	-236.287	
-160.004	3.08001	-235.41	
-159.672	1.64401	-239.419	
-157.183	2.00901	-232.999	
-157.925	-2.24199	-234.236	
-157.19	-1.30499	-238.366	
-154.772	-3.34299	-232.299	
-153.534	-5.43799	-236.506	
-153.506	-2.46699	-239.787	
-149.808	-6.55899	-235.848	
-149.221	-7.06699	-240.395	
-149.489	-2.47899	-242.106	
-145.65	-8.05499	-239.299	
-144.356	-5.39299	-242.856	
-146.145	-1.84599	-241.208	
-141.089	-6.46699	-241.597	
-139.427	-2.27299	-242.552	
-142.567	-0.562492	-240.261	
-136.712	-3.22799	-240.317	
-136.196	1.27101	-239.278	
-140.233	1.84201	-236.654	
-133.572	-0.158693	-236.951	
-135.079	3.31201	-234.173	
-139.491	1.88701	-232.589	
-132.759	2.26201	-231.259	
-135.998	3.63901	-228.445	
-139.788	0.386407	-228.473	
-133.177	2.56701	-226.175	
-136.606	0.787807	-223.736	
-138.494	-2.16199	-226.09	
-134.817	-0.0723928	-220.433	
-136.366	-4.41599	-220.582	
-136.083	-5.38799	-224.683	
-133.7	-5.50499	-218.157	
-133	-9.21699	-220.695	
-136.634	-10.79	-219.323	
-133.219	-7.15899	-223.87	
-135.97	-10.78	-225.079	
-139.809	-10.34	-222.088	
-136.811	-8.96599	-228.339	
-140.707	-11.34	-228.261	
-141.895	-9.01399	-224.81	
-141.527	-9.76099	-231.542	
-145.791	-11.53	-231.238	
-145.063	-16.09	-228.997	
-148.096	-8.62899	-230.63	
-148.019	-7.76399	-226.889	
-143.38	-6.55599	-226.578	
-149.907	-4.76699	-228.537	
-147.955	-1.94499	-225.68	
-144.08	-2.58199	-227.434	
-150.14	0.473208	-227.314	
-146.562	3.36801	-226.932	
-144.009	0.922708	-229.343	
-148.719	5.56301	-229.018	
-144.815	7.48301	-230.658	
-143.529	3.90301	-232.369	
-147.177	9.17601	-233.105	
-143.649	8.97701	-236.068	
-143.295	4.17201	-237.27	
-145.919	10.59	-238.748	
-143.408	8.17301	-241.823	
-145.12	3.70901	-240.819	
-145.579	9.81201	-244.461	
-144.412	6.26401	-247.183	
-146.923	3.08301	-244.39	
-145.926	8.19501	-249.913	
-148.507	4.37601	-250.16	
-150.069	4.23001	-245.345	
-150.536	6.12901	-252.798	
-154.524	4.88001	-252.628	
-156.186	6.56901	-248.279	
-155.556	4.91801	-256.121	
-157.777	8.53801	-257.154	
-156.617	7.47401	-261.283	
-160.853	8.47501	-255.068	
-162.818	5.26401	-254.375	
-162.55	7.68201	-250.683	
-165.371	2.56701	-255.216	
-163.419	0.256909	-258.016	
-167.888	-0.450391	-259.487	
-162.069	3.44601	-259.791	
-163.865	2.16701	-263.652	
-167.648	2.58701	-261.707	
-162.302	5.36001	-265.073	
-166.057	5.96301	-267.541	
-168.935	5.79201	-264.38	
-164.466	9.37201	-267.859	
-169.02	10.63	-268.397	
-170.971	9.58101	-264.041	
-168.638	14.49	-268.071	
-172.93	14.97	-266.466	
-172.895	13.11	-261.835	
-172.103	18.75	-266.021	
-175.044	19.08	-262.655	
-172.442	16.67	-260.307	
-173.906	22.7	-263.086	
-172.223	22.26	-258.971	
-169.324	18.9	-260.031	
-171.495	25.9	-259.699	
-167.188	25.54	-258.207	
-168.843	25.66	-254.29	
-167.054	22.37	-260.18	
-165.555	20.59	-256.164	
-169.416	21.47	-253.151	
-165.307	17.21	-257.825	
-166.616	14.79	-254.679	
-171.537	15.2	-254.848	
-163.992	12.27	-253.908	
-166.566	8.68201	-252.607	
-166.955	9.88801	-247.975	
-169.288	9.74801	-254.976	
-171.891	10	-251.384	
-168.723	12.54	-249.884	
-175.313	8.24801	-251.072	
-177.194	11.55	-253.576	
-173.715	12.58	-255.923	
-179.025	8.54201	-254.855	
-179.435	9.98501	-259.112	
-175.249	10.34	-259.763	
-180.56	6.41201	-259.402	
-179.16	6.36501	-263.772	
-174.295	7.01201	-263.404	
-179.683	2.58501	-263.956	
-176.727	2.12401	-267.194	
-172.485	3.15401	-264.932	
-177.441	-1.51499	-266.339	
-172.93	-1.95899	-267.456	
-171.961	-0.271891	-263.758	
-173.333	-5.67099	-267.053	
-168.942	-6.17199	-265.787	
-169.882	-3.92599	-262.443	
-169.776	-9.80799	-264.953	
-167.082	-9.30299	-261.283	
-169.918	-6.78599	-259.437	
-167.655	-12.99	-260.427	
-167.4	-12.08	-256.015	
-170.823	-9.53799	-255.987	
-168.702	-15.61	-255.845	
-170.448	-14.5	-251.695	
-173.185	-11.87	-253.625	
-172.972	-17.23	-251.574	
-174.832	-15.93	-247.876	
-177.816	-13.75	-250.832	
-175.964	-19.52	-248.018	
-180.298	-17.87	-247.219	
-180.531	-16.64	-251.228	
-181.521	-21.45	-246.561	
-184.208	-20.35	-250.097	
-180.638	-19.85	-253.385	
-185.92	-23.8	-250.224	
-184.873	-23.55	-254.664	
-180.015	-23.48	-254.29	
-186.16	-27.16	-254.933	
-182.37	-27.51	-257.592	
-180.256	-27.25	-254.049	
-183.24	-31.09	-258.702	
-178.933	-32.45	-258.2	
-178.092	-31.14	-254.092	
-180.539	-35.86	-258.716	
-177.972	-37.61	-255.626	
-178.184	-34.91	-251.454	
-256.878	-47.46	-172.619	
-256.036	-47.42	-176.43	
-253.724	-48.83	-170.823	
-252.628	-44.5	-171.777	
-248.803	-44.75	-169.098	
-251.193	-44.88	-175.193	
-248.272	-41.39	-174.578	
-246.08	-43.82	-171.961	
-247.551	-42.2	-178.127	
-243.033	-42.13	-176.847	
-242.128	-46.19	-174.217	
-241.541	-43.19	-180.178	
-237.39	-43.95	-178.389	
-238.649	-48.04	-176.282	
-236.16	-44.96	-181.882	
-234.038	-48.5	-179.761	
-237.468	-51.8	-178.453	
-232.454	-50.02	-182.9	
-231.832	-54.13	-181.118	
-236.64	-55.36	-180.694	
-228.82	-55.04	-181.302	
-226.896	-55.31	-185.488	
-227.158	-51.12	-185.509	
-225.228	-57.56	-183.621	
-220.688	-58.19	-184.626	
-218.001	-56.88	-188.868	
-221.339	-61.25	-182.702	
-219.5	-59.75	-178.884	
-216.516	-56.3	-180.312	
-222.859	-57.93	-178.212	
-220.985	-54.59	-175.985	
-218.51	-52.3	-179.45	
-224.542	-53.34	-176.105	
-223.269	-49.06	-176.105	
-220.928	-48.94	-180.425	
-226.932	-48.1	-176.685	
-225.419	-45.66	-180.461	
-223.707	-48.59	-183.162	
-228.77	-44.3	-182.2	
-226.423	-43.27	-186.103	
-224.704	-47.16	-188.67	
-229.796	-42.18	-187.68	
-228.176	-44.34	-191.421	
-228.148	-49.13	-189.894	
-230.814	-42.35	-193.309	
-233.826	-45.37	-193.408	
-233.395	-46.45	-189.172	
-235.87	-45.06	-196.597	
-238.401	-41.43	-195.197	
-235.452	-40.53	-192.064	
-240.515	-41.2	-198.032	
-236.464	-41.78	-199.538	
-235.431	-38.43	-196.894	
-236.669	-44.51	-201.313	
-233.904	-47.52	-201.25	
-236.81	-51.28	-202.586	
-230.397	-47.59	-199.807	
-228.091	-50.67	-202.395	
-230.899	-50.57	-206.659	
-226.755	-53.56	-200.762	
-223.396	-50.24	-200.444	
-224.393	-45.7	-200.861	
-220.384	-50.59	-198.223	
-220.858	-51.38	-194.497	
-223.594	-55.27	-193.033	
-217.457	-51.04	-192.948	
-218.312	-46.76	-191.81	
-221.508	-47.79	-188.189	
-214.925	-46.42	-190.106	
-216.947	-43.85	-186.952	
-219.048	-47.24	-185.418	
-213.313	-43.53	-185.778	
-214.734	-43.97	-181.528	
-216.544	-47.77	-182.405	
-211.107	-44.23	-180.348	
-212.57	-48.28	-178.177	
-214.423	-51.04	-181.132	
-209.19	-49.91	-176.89	
-211.432	-53.91	-176.345	
-212.521	-55.27	-180.913	
-207.995	-55.11	-175.256	
-208.978	-58.82	-177.809	
-209.297	-56.54	-181.451	
-205.634	-59.7	-176.628	
-204.757	-61.58	-180.758	
-205.789	-57.93	-182.554	
-201.165	-61.33	-179.683	
-200.069	-60.94	-184.173	
-201.738	-56.45	-184.908	
-196.632	-60.56	-182.66	
-196.156	-57.54	-186.248	
-198.805	-53.61	-185.012	
-192.523	-56.52	-185.072	
-193.492	-52.38	-186.649	
-196.63	-50.07	-183.51	
-189.859	-52.17	-185.473	
-191.221	-48.13	-183.829	
-194.232	-48.83	-180.959	
-187.841	-46.49	-182.966	
-189.316	-45.56	-178.663	
-191.487	-49.01	-177.623	
-185.776	-45.14	-177.535	
-186.758	-47.49	-173.725	
-188.974	-44.19	-172.357	
-188.819	-50	-175.766	
-191.873	-49.24	-172.287	
-193.16	-44.58	-172.838	
-194.334	-51.43	-174.068	
-197.544	-49	-171.848	
-196.413	-45.59	-174.252	
-200.076	-51.22	-173.418	
-203.371	-48.41	-171.82	
-201.681	-46.89	-167.287	
-204.877	-46.65	-174.839	
-202.473	-43.69	-175.688	
-198.584	-46.21	-176.748	
-204.905	-44	-178.771	
-201.582	-42.93	-181.528	
-199.524	-46.6	-180.758	
-204.311	-43.04	-184.032	
-201.108	-44.92	-186.811	
-200.472	-48.3	-184.194	
-203.986	-45.41	-189.024	
-201.79	-49.09	-190.796	
-201.886	-51.12	-187.164	
-205.009	-49.72	-192.526	
-203.958	-54.19	-192.163	
-204.509	-55.22	-187.369	
-207.328	-55.06	-193.884	
-207.225	-58.96	-191.301	
-208.059	-57	-186.931	
-210.456	-59.86	-193.019	
-211.213	-62.63	-189.434	
-211.623	-58.8	-186.337	
-214.062	-64.01	-191.393	
-216.375	-62.57	-187.666	
-214.748	-57.76	-187.595	
-219.514	-63.56	-189.476	
-222.626	-61.04	-188.345	
-221.388	-56.61	-190.148	
-225.525	-63.25	-188.416	
-227.802	-62.89	-192.078	
-229.364	-66.88	-190.94	
-229.088	-59.39	-192.206	
-230.39	-57.58	-189.066	
-227.943	-54.83	-191.513	
-232.985	-56.67	-186.471	
-233.041	-60.01	-184.01	
-237.56	-58.54	-183.452	
-233.02	-62.35	-187.143	
-236.775	-64.36	-185.934	
-238.627	-60.57	-186.485	
-236.216	-66.52	-189.038	
-240.735	-66.33	-189.752	
-241.166	-62.07	-189.745	
-239.547	-67.63	-193.061	
-243.45	-65.4	-194.532	
-242.545	-60.71	-193.599	
-242.891	-65.5	-198.343	
-245.331	-61.68	-199.015	
-242.63	-57.9	-197.191	
-244.397	-61.93	-202.777	
-244.758	-57.48	-203.265	
-241.3	-57.05	-200.783	
-244.023	-58.62	-206.829	
-240.261	-56.28	-206.348	
-238.62	-58.74	-202.897	
-239.907	-57.39	-209.954	
-235.622	-58.72	-209.431	
-234.653	-54.59	-209.693	
-236.711	-60.3	-206.221	
-233.218	-57.87	-204.481	
-234.583	-53.2	-205.521	
-234.109	-59.26	-201.045	
-233.359	-55.89	-198.683	
-237.404	-53.12	-199.305	
-230.835	-56.72	-196.116	
-232.214	-54.04	-192.616	
-229.81	-50.11	-193.889	
-235.834	-54.39	-193.804	
-235.792	-49.97	-194.129	
-232.327	-50.7	-196.604	
-238.373	-47.64	-192.538	
-241.272	-48.66	-195.861	
-239.921	-52.64	-196.788	
-243.62	-48.52	-192.948	
-246.427	-51.75	-194.384	
-243.422	-54.76	-194.56	
-247.579	-51.22	-190.827	
-249.015	-55.58	-190.664	
-244.857	-58.16	-191.145	
-249.665	-55.3	-186.902	
-249.135	-59.64	-186.301	
-244.411	-60.35	-187.207	
-249.34	-58.42	-182.702	
-246.413	-61.97	-182.094	
-243.422	-59.6	-183.812	
-246.589	-61.3	-178.382	
-242.297	-62.84	-177.724	
-241.081	-59.65	-180.072	
-242.601	-61.57	-174.167	
-238.21	-60.2	-174.599	
-239.405	-57.13	-177.222	
-238.309	-59.06	-170.964	
-235.438	-55.67	-171.855	
-238.104	-53.71	-174.563	
-236.471	-54.66	-168.419	
-235.438	-50.32	-169.592	
-238.656	-50.33	-172.315	
-237.482	-48.65	-166.983	
-236.775	-44.61	-168.397	
-240.862	-45.3	-170.674	
-237.878	-43.94	-164.89	
-240.77	-40.79	-166.665	
-243.379	-43.94	-167.874	
-241.47	-39.43	-163.137	
-245.776	-40.75	-164.346	
-244.793	-45.53	-164.622	
-247.332	-39.74	-160.952	
-249.015	-43.94	-161.107	
-244.906	-46.5	-160.973	
-250.337	-43.3	-157.522	
-248.866	-47.67	-157.013	
-244.991	-46.05	-157.211	
-250.309	-47.94	-153.449	
-246.582	-50.03	-151.943	
-243.429	-47.24	-153.258	
-248.23	-49.39	-148.598	
-244.404	-48.36	-146.767	
-242.057	-44.95	-149.539	
-250.945	65.69	-200.755	
-248.053	63.72	-202.515	
-250.627	64.95	-196.972	
-247.325	68.05	-197.728	
-246.618	68.61	-193.203	
-244.461	65.81	-198.754	
-241.399	68.71	-197.007	
-242.665	67.6	-193.196	
-239.158	66.15	-198.541	
-236.909	66.22	-194.285	
-239.829	63.9	-191.081	
-234.427	63.44	-195.07	
-233.161	63.09	-190.678	
-237.093	60.8	-189.292	
-230.736	60.34	-191.69	
-232.228	58.04	-187.935	
-236.789	56.35	-188.889	
-229.972	54.96	-188.352	
-232.532	52.23	-185.792	
-236.464	52.07	-188.79	
-230.892	50.93	-183.473	
-227.236	48.36	-184.583	
-225.461	51.98	-185.792	
-228.261	47.12	-181.578	
-225.016	45.43	-178.742	
-220.108	44.09	-179.69	
-228.021	43.85	-177.293	
-228.452	46.76	-173.892	
-224.061	48.6	-173.333	
-230.199	49.13	-176.388	
-228.827	52.85	-174.365	
-224.026	52.75	-175.207	
-230.474	54.36	-177.385	
-227.724	57.86	-177.448	
-223.474	55.48	-178.445	
-229.322	58.91	-180.8	
-224.931	58.91	-182.646	
-223.46	54.83	-182.278	
-225.383	59.71	-186.436	
-221.006	58.32	-187.419	
-220.115	53.49	-186.754	
-221.763	58.95	-191.188	
-219.436	55.02	-191.817	
-222.527	51.66	-189.717	
-219.111	56.19	-195.395	
-222.364	53.97	-196.95	
-225.178	55.05	-193.853	
-221.579	52.95	-200.564	
-222.428	57.11	-202.402	
-222.039	59	-198.549	
-222.003	56.22	-205.796	
-218.743	54.39	-203.682	
-218.093	58.44	-201.928	
-219.033	51.21	-204.241	
-218.609	48.26	-201.412	
-221.423	44.78	-203.548	
-217.237	48.43	-197.834	
-215.583	44.16	-197.085	
-214.743	42.56	-201.743	
-217.039	42.32	-194.355	
-213.546	44.83	-192.474	
-211.842	48.68	-194.461	
-213.08	45.22	-188.699	
-215.986	46.46	-186.499	
-220.433	44.22	-186.719	
-214.621	47.01	-183.197	
-213.907	51.39	-184.053	
-218.595	52.74	-183.89	
-212.578	52.03	-180.574	
-214.6	56.09	-180.673	
-218.489	54.21	-180.602	
-212.832	56.42	-177.349	
-216.502	58.33	-175.659	
-218.892	54.9	-176.664	
-215.038	58.19	-172.173	
-219.118	56	-170.922	
-219.804	52.43	-173.489	
-218.503	54.74	-167.294	
-222.109	51.91	-167.648	
-220.631	48.63	-170.964	
-221.042	50.94	-164.049	
-221.826	46.62	-165.527	
-218.786	46.83	-168.567	
-220.759	45.98	-162.069	
-218.56	42.21	-163.561	
-216.467	44.59	-166.361	
-216.749	42.43	-160.28	
-213.129	40.4	-162.345	
-211.743	44.12	-165.145	
-211.687	40.99	-158.979	
-207.776	41.75	-161.475	
-208.462	46.11	-163.617	
-205.662	42.68	-158.357	
-203.456	45.61	-160.987	
-206.327	49.57	-161.935	
-201.73	45.85	-157.621	
-201.759	50.31	-158.583	
-205.761	51.56	-158.823	
-199.362	51.68	-155.889	
-202.522	54.8	-154.566	
-206.079	52.65	-154.687	
-200.656	55.24	-151.201	
-204.722	55.22	-149.115	
-205.478	59.06	-150.621	
-205.931	52.35	-151.3	
-209.735	55.16	-151.597	
-208.109	59.05	-154.071	
-211.241	52.74	-154.05	
-213.518	56.38	-155.592	
-209.784	57.96	-157.063	
-215.243	54.05	-157.968	
-217.068	57.72	-160.103	
-218.029	61.03	-156.313	
-215.399	57.96	-163.469	
-211.962	59.72	-162.946	
-209.982	56.5	-160.117	
-211.842	58.29	-166.601	
-207.529	57.38	-166.106	
-208.328	54.32	-163.186	
-207.812	56.43	-169.642	
-204.87	53.01	-168.482	
-207.649	51.29	-165.703	
-205.634	51.89	-171.961	
-204.806	47.55	-170.526	
-208.024	47.61	-167.874	
-206.185	46.59	-173.955	
-207.727	42.79	-171.848	
-211.446	44.37	-168.977	
-209.311	41.68	-175.214	
-212.578	39.58	-172.654	
-214.84	43.55	-170.957	
-214.02	38.43	-175.879	
-217.944	37.94	-173.51	
-218.333	42.79	-172.838	
-219.267	36.19	-176.572	
-222.357	39.58	-176.31	
-219.175	43.51	-176.239	
-223.771	38.28	-179.563	
-225.327	41.43	-181.825	
-221.409	44.18	-183.056	
-228.183	39.92	-183.494	
-227.236	38.73	-187.553	
-230.8	36.09	-187.1	
-226.416	41.87	-189.363	
-228.353	45.15	-188.84	
-224.04	45.96	-189.193	
-231.21	47.58	-189.377	
-234.264	45.92	-187.171	
-236.845	48.09	-190.53	
-233.374	42.37	-188.486	
-237.482	41.78	-190.035	
-236.64	45.01	-192.715	
-236.195	38.31	-191.039	
-238.649	38.75	-194.949	
-236.959	42.49	-196.215	
-236.464	35.82	-195.861	
-237.1	37.58	-200.175	
-234.894	41.93	-199.977	
-234.434	35.52	-202.134	
-233.869	38.82	-205.245	
-231.478	42.58	-202.968	
-231.061	36.62	-206.779	
-229.004	40.25	-208.413	
-228.077	41.37	-204.389	
-226.875	37.41	-209.834	
-223.644	39.13	-207.267	
-225.793	38.5	-203.279	
-221.754	36.34	-209.015	
-219.91	34.86	-205.202	
-217.192	38.15	-205.516	
-223.283	35.23	-203.668	
-220.964	37.69	-200.472	
-219.062	41.37	-203.222	
-224.273	38.31	-198.718	
-223.665	42.26	-197.488	
-224.62	44.9	-201.483	
-223.983	42.47	-193.776	
-225.758	46.68	-193.273	
-221.621	49.09	-193.167	
-227.547	46.32	-196.576	
-225.284	49.93	-197.848	
-221.876	47.6	-196.59	
-226.904	53.08	-199.34	
-227.179	50.97	-203.307	
-227.589	46.92	-201.907	
-230.453	52.87	-203.286	
-232.9	49.79	-205.506	
-232.2	46.69	-202.671	
-235.537	52.15	-204.283	
-238.542	48.69	-204.248	
-236.739	45.65	-200.818	
-241.152	50.87	-202.487	
-243.117	47.37	-200.663	
-239.865	45.66	-197.551	
-244.899	50.23	-198.881	
-244.963	47.07	-195.423	
-240.918	47.85	-194.801	
-247.056	49.5	-193.471	
-245.373	47.9	-189.498	
-241.71	49.31	-190.756	
-247.134	50.8	-187.737	
-243.429	51.14	-185.078	
-241.173	52.64	-188.324	
-245.203	53.93	-183.162	
-241.187	55.98	-182.37	
-240.438	56.71	-186.514	
-243.492	58.7	-181.196	
-240.162	61.68	-182.264	
-240.607	60.79	-186.344	
-242.304	64.7	-182.525	
-239.158	67.37	-183.834	
-240.706	66.24	-188.083	
-241.696	69.85	-182.568	
-241.039	72.07	-186.62	
-243.45	69.14	-188.592	
-243.054	75.07	-185.311	
-245.691	73.97	-188.896	
-247.049	69.57	-187.256	
-248.336	76.72	-188.232	
-251.228	73.27	-188.592	
-249.771	70.55	-184.816	
-253.979	75.77	-187.539	
-255.315	72.07	-185.071	
-251.921	72.81	-182.667	
-258.511	73.79	-183.855	
-257.953	72.22	-179.605	
-253.858	73.52	-178.75	
-260.774	74.65	-178.905	
-258.957	75.9	-175.207	
-254.155	77.14	-175.907	
-247.289	10.85	-333.952	
-243.591	9.88601	-334.822	
-247.94	9.55201	-330.332	
-245.564	13.37	-329.738	
-246.363	13.27	-325.121	
-242.064	12.01	-329.986	
-240.459	15.15	-326.924	
-242.495	13.14	-323.897	
-237.277	13.44	-327.843	
-236.57	13.24	-323.176	
-239.575	9.83101	-321.302	
-233.331	11.24	-323.303	
-233.437	10.41	-318.813	
-236.852	7.12401	-319.075	
-230.142	8.46201	-319.138	
-232.058	5.27301	-316.374	
-235.459	2.83801	-318.912	
-229.11	2.87601	-316.352	
-231.521	-0.746188	-315.073	
-234.165	-1.22399	-319.216	
-230.354	-2.04699	-312.421	
-225.963	-3.53599	-312.428	
-224.909	0.532112	-312.633	
-227.533	-5.47599	-310.151	
-224.945	-6.89999	-306.517	
-219.811	-6.96599	-305.852	
-227.717	-9.31199	-306.29	
-229.965	-7.19999	-303.052	
-226.607	-4.58799	-300.895	
-231.394	-4.86199	-305.725	
-231.712	-1.35399	-303.002	
-227.08	-0.272288	-302.26	
-232.695	0.270412	-306.262	
-231.083	4.23701	-305.046	
-226.246	3.04101	-304.791	
-231.775	5.49401	-308.596	
-227.165	6.75501	-308.822	
-224.952	3.08301	-308.489	
-226.698	8.08701	-312.541	
-222.024	7.86601	-312.124	
-220.129	3.29701	-311.615	
-221.727	8.96801	-315.815	
-218.348	5.80201	-315.942	
-221.006	1.53701	-315.405	
-217.301	7.61301	-319.11	
-219.21	5.06101	-321.868	
-223	4.95301	-319.775	
-217.188	4.87001	-325.163	
-218.447	9.01601	-326.733	
-219.726	10.24	-322.766	
-216.778	8.83901	-329.816	
-213.928	7.41201	-326.867	
-214.968	11.13	-324.696	
-213.242	4.38901	-327.836	
-212.924	1.15301	-325.326	
-213.992	-2.41799	-328.642	
-212.867	0.984611	-321.564	
-210.407	-2.88699	-320.63	
-207.826	-3.43199	-324.908	
-212.125	-5.45199	-318.771	
-210.103	-2.61399	-315.561	
-208.985	1.79501	-316.536	
-210.965	-2.80199	-311.869	
-214.586	-2.62099	-310.653	
-218.022	-5.68199	-312.591	
-214.508	-2.36799	-307.054	
-214.692	2.14301	-307.153	
-219.415	2.40001	-308.511	
-214.741	2.43401	-303.427	
-217.598	5.91401	-303.823	
-220.709	3.26001	-305.237	
-217.089	6.03001	-300.089	
-221.508	6.78501	-299.629	
-222.456	3.14801	-301.652	
-221.119	6.35901	-295.776	
-224.726	3.15401	-296.271	
-223.63	0.033062	-299.205	
-224.895	1.44701	-292.707	
-227.335	-1.98699	-294.51	
-224.118	-4.23799	-297.444	
-227.236	-3.31999	-290.932	
-226.416	-7.37799	-293.025	
-222.703	-5.99099	-294.757	
-226.295	-8.36599	-289.468	
-222.809	-11.26	-290.409	
-220.667	-8.03699	-292.127	
-222.222	-11.23	-286.753	
-217.768	-12.04	-287.672	
-216.58	-7.68299	-289.426	
-217.577	-11.76	-283.903	
-213.461	-9.74699	-284.907	
-214.6	-5.33599	-286.739	
-212.754	-8.94899	-281.231	
-210.661	-5.20199	-282.616	
-214.07	-1.84799	-284.158	
-210.173	-5.18799	-278.862	
-211.078	-0.734389	-279.371	
-214.989	-0.350388	-280.835	
-210.046	0.625911	-275.878	
-214.105	2.71401	-275.354	
-216.841	-0.0952784	-277.002	
-213.582	2.94301	-271.635	
-217.902	1.69301	-270.992	
-219.139	5.48201	-272.3	
-217.655	-0.945188	-273.785	
-221.706	0.995012	-274.966	
-220.532	5.51301	-276.422	
-221.735	-1.22499	-278.049	
-224.33	2.04601	-279.979	
-220.858	4.62001	-279.915	
-224.577	-0.142588	-282.984	
-226.557	3.35801	-285.247	
-229.414	5.67601	-281.683	
-224.096	4.53401	-287.849	
-221.544	6.87601	-286.018	
-219.691	3.71201	-282.92	
-219.917	6.16301	-289.482	
-215.908	6.12801	-287.693	
-216.707	2.51101	-285.48	
-214.833	5.77501	-291.172	
-211.609	2.91101	-289.447	
-214.557	0.180311	-287.913	
-210.958	2.27901	-293.067	
-209.495	-1.96099	-291.844	
-213.299	-3.05199	-290.444	
-209.459	-2.57399	-295.556	
-210.52	-6.92899	-294.496	
-215.279	-6.71399	-292.99	
-210.69	-7.74099	-298.286	
-213.907	-10.91	-297.19	
-217.506	-7.88199	-295.995	
-213.956	-11.77	-300.817	
-218.164	-13.49	-300.004	
-219.981	-9.02999	-299.035	
-217.973	-14.93	-303.448	
-221.749	-12.37	-303.914	
-219.875	-7.92899	-302.394	
-221.685	-13.35	-307.514	
-223.269	-10.27	-309.89	
-220.023	-6.57499	-309.458	
-224.994	-12.05	-312.548	
-222.611	-12.27	-316.204	
-225.305	-15.65	-317.187	
-222.095	-8.76599	-317.286	
-224.909	-6.12099	-317.159	
-221.049	-4.35099	-315.928	
-227.957	-4.29999	-318.354	
-230.984	-6.93999	-317.449	
-232.921	-4.82699	-321.309	
-228.905	-9.93199	-318.82	
-232.002	-11.11	-321.663	
-231.245	-7.35599	-323.551	
-229.612	-13.99	-322.497	
-230.814	-13.41	-326.952	
-229.845	-9.23799	-327.214	
-227.752	-15.59	-327.327	
-227.49	-13.29	-331.407	
-226.67	-8.66999	-330.106	
-223.927	-14.36	-332.566	
-223.333	-10.52	-334.999	
-222.802	-6.79499	-331.711	
-219.755	-11.77	-335.748	
-218.234	-7.54599	-336.137	
-218.892	-6.97899	-331.944	
-215.18	-9.57399	-337.071	
-213.44	-7.67999	-333.436	
-216.424	-9.44399	-330.452	
-210.407	-9.64399	-334.631	
-209.509	-11.34	-330.579	
-207.748	-7.54199	-329.653	
-213.122	-11.98	-330.219	
-212.613	-9.66699	-326.202	
-210.994	-5.24199	-327.822	
-216.325	-10.09	-325.601	
-217.181	-6.37699	-323.897	
-217.556	-3.34599	-327.765	
-218.694	-6.89499	-320.546	
-221.537	-3.31599	-320.249	
-218.425	-0.134188	-318.552	
-222.138	-3.47099	-324.032	
-220.617	0.704612	-324.138	
-217.244	-1.01999	-321.995	
-222.428	3.64801	-325.722	
-220.928	2.25301	-329.766	
-220.646	-1.96899	-328.918	
-224.436	3.36601	-330.643	
-225.199	0.272812	-333.839	
-224.577	-3.04999	-331.209	
-228.615	1.76801	-333.394	
-230.446	-2.21899	-334.674	
-229.039	-5.34299	-331.131	
-233.96	-0.984687	-333.705	
-235.46	-5.08699	-333.054	
-232.907	-6.57899	-329.102	
-238.302	-3.03799	-331.626	
-238.613	-6.68499	-328.769	
-235.297	-5.18399	-326.712	
-241.795	-5.14699	-327.426	
-241.017	-7.01899	-323.254	
-237.595	-4.65199	-322.999	
-243.902	-4.91399	-321.924	
-241.364	-4.25499	-318.099	
-238.748	-1.76199	-320.291	
-244.348	-2.28899	-316.671	
-241.47	0.398713	-314.457	
-239.681	1.99301	-317.943	
-244.631	2.31801	-313.842	
-241.993	6.08601	-313.369	
-240.911	5.84301	-317.42	
-244.673	8.57001	-314.083	
-242.092	12.04	-313.977	
-241.944	11.36	-318.651	
-245.458	13.66	-313.439	
-244.199	16.64	-316.819	
-245.005	13.65	-319.69	
-247.205	18.86	-315.935	
-248.223	17.86	-320.291	
-248.845	13.06	-319.669	
-251.596	19.82	-320.312	
-253.222	15.95	-321.939	
-252.381	12.99	-318.255	
-256.743	17.58	-321.67	
-257.719	13.3	-320.128	
-255.591	14.32	-316.741	
-261.531	14.06	-319.994	
-261.884	11.92	-315.964	
-258.716	13.91	-313.616	
-265.342	13.54	-316.041	
-265.073	14.48	-311.785	
-260.774	16.82	-310.71	
-306.305	-79.18	-255.987	
-307.457	-75.62	-257.097	
-302.698	-78.76	-254.502	
-305.456	-77.26	-251.178	
-301.913	-77.12	-248.216	
-305.866	-73.66	-252.183	
-306.206	-72.35	-247.742	
-302.161	-73.17	-247.261	
-306.757	-69.08	-249.453	
-303.575	-67.41	-246.413	
-299.113	-69.06	-247.763	
-303.434	-63.86	-247.827	
-299.672	-62.83	-245.366	
-296.737	-65.35	-248.159	
-299.714	-59.32	-246.879	
-295.161	-59.81	-247.473	
-294.333	-62.98	-251.129	
-294.489	-56.38	-248.993	
-290.571	-57.51	-250.931	
-292.367	-60.75	-254.226	
-288.224	-55.58	-250.026	
-288.698	-51.08	-250.966	
-291.745	-51.13	-248.06	
-285.36	-51.62	-250.91	
-282.68	-48.11	-249.347	
-283.84	-43.08	-248.753	
-280.177	-50.1	-251.143	
-278.487	-52.03	-247.459	
-279.647	-49.04	-243.895	
-281.414	-54.54	-247.643	
-281.598	-55.15	-243.216	
-283.239	-50.85	-241.717	
-284.625	-57.16	-244.291	
-286.767	-56.32	-240.452	
-287.375	-51.45	-240.975	
-289.878	-58.03	-242.007	
-292.283	-54.04	-241.017	
-290.388	-50.92	-243.337	
-295.882	-54.63	-242.509	
-296.921	-50.08	-242.177	
-294.27	-47.08	-245.111	
-300.322	-50.81	-243.867	
-299.474	-46.88	-246.13	
-295.585	-48.18	-249.029	
-303.222	-46.92	-246.908	
-302.932	-48.7	-250.733	
-300.23	-51.84	-249.616	
-305.767	-47.35	-252.989	
-309.098	-49.93	-251.072	
-306.672	-50.65	-247.558	
-311.721	-48.92	-253.257	
-309.663	-45.29	-252.204	
-310.151	-46.74	-248.039	
-308.588	-44.05	-254.976	
-304.904	-42.49	-255.69	
-304.593	-43.23	-260.526	
-302.14	-41.56	-253.222	
-299.849	-38.15	-255.372	
-303.328	-36.42	-258.539	
-296.348	-38.73	-256.043	
-296.483	-36.91	-251.666	
-300.28	-37.09	-249.001	
-293.463	-36.89	-249.312	
-291.632	-40.18	-248.598	
-289.942	-43.06	-252.267	
-289.235	-39.38	-245.903	
-292.134	-40.73	-242.721	
-291.759	-45.56	-243.662	
-289.659	-40.06	-239.964	
-291.243	-43.75	-237.814	
-289.532	-46.29	-240.798	
-288.818	-42.51	-235.148	
-287.545	-46.77	-234.441	
-286.392	-47.22	-238.564	
-284.717	-45.55	-232.179	
-281.888	-48.25	-235.007	
-282.327	-47.04	-239.235	
-278.232	-47.28	-233.854	
-276.599	-49.14	-237.751	
-278.225	-46.15	-241.215	
-273.254	-47.98	-236.287	
-272.363	-46.59	-240.572	
-275.687	-43.82	-240.643	
-269.316	-45.56	-238.953	
-269.252	-41.76	-241.562	
-273.212	-40.86	-240.289	
-266.855	-40.46	-239.009	
-268.389	-36.2	-240.02	
-272.809	-36.52	-238.005	
-265.943	-35.35	-237.234	
-269.28	-32.14	-236.301	
-272.964	-34.64	-234.314	
-267.357	-30.88	-233.133	
-271.373	-30.13	-231.238	
-273.502	-34.47	-229.958	
-268.877	-28.89	-228.643	
-271.762	-30.94	-225.758	
-271.833	-35.06	-226.677	
-270.497	-29.59	-222.357	
-270.186	-33.9	-220.688	
-268.722	-36.09	-223.99	
-267.845	-32.69	-217.937	
-265.278	-36.36	-218.666	
-268.227	-38.73	-216.848	
-265.618	-36	-222.427	
-266.431	-40.61	-222.039	
-270.68	-40.84	-219.627	
-267.223	-40.69	-225.772	
-269.79	-44.34	-224.761	
-272.462	-41.68	-222.654	
-270.49	-44.64	-228.445	
-273.686	-47.84	-227.512	
-271.727	-50.43	-223.531	
-277.023	-46.29	-228.275	
-277.999	-44.11	-225.178	
-274.421	-40.98	-225.362	
-280.538	-43.1	-228.014	
-280.509	-38.88	-226.628	
-276.373	-38.35	-227.794	
-283.055	-38.52	-229.173	
-281.089	-34.41	-230.008	
-277.327	-36.18	-231.082	
-283.444	-34.36	-232.886	
-280.361	-31.7	-235.12	
-277.433	-34.71	-235.078	
-282.553	-32.25	-238.019	
-278.727	-31.99	-240.572	
-276.309	-36.19	-239.596	
-280.82	-32.65	-243.711	
-277.066	-34.72	-245.486	
-276.981	-38.69	-242.601	
-279.067	-35.3	-248.576	
-276.062	-38.69	-249.46	
-277.631	-41.33	-245.628	
-277.638	-38.84	-252.833	
-278.423	-43.18	-251.483	
-280.721	-42.17	-247.063	
-280.354	-43.63	-254.643	
-283.493	-46.34	-254.049	
-286.527	-44.08	-250.874	
-283.698	-48.07	-257.238	
-286.859	-46.48	-259.734	
-284.568	-48.4	-263.015	
-289.999	-47.09	-257.868	
-290.734	-50.35	-256.001	
-292.198	-46.87	-253.689	
-291.795	-53.97	-255.647	
-288.507	-56.02	-257.097	
-291.993	-59.14	-258.278	
-288.21	-53.54	-260.081	
-288.507	-56.81	-263.037	
-292.509	-57.4	-261.58	
-288.033	-54.02	-265.632	
-291.187	-56.14	-268.276	
-294.284	-56.33	-265.321	
-291.031	-52.79	-269.987	
-295.465	-53.92	-271.069	
-297.692	-54.04	-266.721	
-296.667	-50.52	-272.413	
-301.058	-51.38	-271.274	
-301.249	-51.15	-266.275	
-301.928	-47.82	-272.526	
-305.371	-47.56	-269.648	
-302.536	-47.48	-266.402	
-305.689	-44.29	-271.593	
-304.841	-42.37	-267.633	
-300.711	-44.21	-267.095	
-305.399	-39.3	-269.761	
-301.73	-37.18	-268.199	
-304.056	-36.32	-264.741	
-299.997	-40.42	-268.658	
-298.781	-39.69	-264.218	
-303.179	-39.59	-261.941	
-296.893	-43	-264.267	
-297.77	-44.37	-260.42	
-302.302	-46.25	-260.838	
-294.559	-44.95	-258.539	
-295.769	-48.52	-255.916	
-297.565	-45.99	-252.282	
-298.095	-49.75	-258.539	
-301.291	-49.37	-255.485	
-299.771	-45.33	-255.167	
-303.773	-52.15	-254.558	
-306.184	-51.23	-258.228	
-303.059	-49.77	-260.788	
-306.404	-54.97	-258.151	
-306.46	-55.57	-262.619	
-302.698	-53.68	-263.27	
-306.008	-59.09	-261.375	
-303.816	-60.15	-265.264	
-299.827	-57.34	-265.151	
-302.811	-63.55	-263.864	
-299.311	-63.8	-266.516	
-296.356	-60.27	-264.804	
-298.682	-66.78	-264.175	
-294.255	-65.59	-264.925	
-294.793	-62.39	-262.266	
-293.237	-68.66	-262.973	
-289.419	-66.64	-261.559	
-291.788	-63.98	-259.473	
-288.896	-69.66	-259.254	
-287.418	-66.66	-256.065	
-291.321	-65.21	-255.555	
-286.654	-69.62	-253.717	
-287.708	-67.12	-250.118	
-291.788	-66.51	-251.27	
-287.517	-70.48	-248.47	
-290.416	-68.83	-245.288	
-293.471	-68.57	-248.173	
-291.646	-72.11	-244.058	
-294.552	-70.48	-241.293	
-297.508	-71.12	-244.984	
-294.128	-73.95	-239.879	
-298.837	-74.19	-239.978	
-298.738	-74.84	-244.178	
-298.675	-77.41	-237.878	
-300.832	-79.05	-241.661	
-297.147	-78.32	-244.779	
-301.008	-82.67	-240.353	
-299.142	-83.63	-244.341	
-294.963	-81.33	-243.994	
-298.915	-87.28	-243.153	
-294.8	-86.89	-245.288	
-293.718	-84.39	-242.127	
-293.994	-90.61	-244.822	
-289.652	-89.63	-243.648	
-290.274	-86.64	-240.48	
-289.645	-93.29	-242.665	
-287.305	-92.44	-239.066	
-289.447	-88.76	-236.499	
-258.551	51.65	-257.354	
-261.465	52.26	-259.814	
-260.031	51.91	-253.753	
-261.304	47.75	-255.167	
-262.747	46.62	-250.895	
-264.476	48.58	-256.945	
-266.308	44.49	-255.819	
-266.657	45.79	-251.935	
-269.085	45.88	-257.993	
-271.932	44.58	-254.438	
-271.26	47.7	-250.726	
-275.149	46.01	-255.888	
-277.412	45.48	-251.928	
-275.312	49.19	-249.785	
-280.538	46.93	-253.611	
-281.139	49.41	-249.757	
-277.723	52.98	-249.637	
-284.306	51.21	-250.832	
-283.896	54.61	-247.848	
-279.901	56.69	-249.863	
-286.506	54.89	-246.087	
-290.543	55.64	-248.131	
-290.133	51.71	-249.531	
-290.826	57.03	-245.02	
-295.104	56.92	-243.146	
-299.743	56.01	-245.295	
-293.527	59.55	-241.046	
-292.657	56.91	-237.531	
-295.754	53.3	-237.97	
-289.497	55.73	-239.419	
-289.574	51.66	-237.644	
-293.513	49.71	-239.646	
-286.696	51.25	-240.098	
-287.566	46.89	-240.643	
-292.042	47.23	-242.813	
-284.922	46.86	-243.429	
-288.287	45.06	-246.285	
-291.427	48.07	-246.54	
-286.661	44.81	-249.892	
-290.812	44.2	-251.963	
-293.874	48.08	-251.73	
-288.98	44.21	-255.35	
-292.594	46.73	-256.687	
-291.929	50.97	-254.099	
-291.526	45.78	-260.159	
-289.355	49.31	-261.057	
-287.184	49.36	-257.288	
-289.581	50.14	-264.79	
-286.612	46.9	-266.204	
-287.008	44.76	-262.414	
-286.597	47.72	-269.613	
-290.762	47.78	-268.418	
-289.822	43.78	-266.671	
-291.738	50.79	-268.998	
-294.057	53.07	-266.537	
-292.664	57.56	-268.071	
-295.967	52.08	-263.355	
-299.488	55.12	-263.228	
-299.863	56.5	-268.085	
-299.707	57.23	-260.321	
-302.076	53.31	-259.225	
-301.341	49.26	-261.375	
-303.207	52.51	-255.69	
-300.605	52.55	-252.777	
-297.678	56.52	-252.027	
-302.38	51.21	-249.87	
-300.867	47.03	-250.676	
-296.136	47.91	-249.326	
-302.529	45.65	-247.6	
-298.88	42.93	-247.007	
-296.419	46.3	-246.073	
-301.107	41.62	-244.213	
-297.459	41.43	-241.64	
-296.653	45.62	-242.163	
-299.665	40.65	-238.585	
-297.353	44.35	-236.513	
-297.734	48	-238.96	
-299.311	44.94	-233.14	
-297.402	49.09	-232.787	
-299.318	51.6	-236.527	
-299.495	49.27	-229.562	
-300.414	53.58	-231.047	
-302.267	52.24	-234.71	
-302.38	53.45	-227.95	
-305.64	55.94	-230.064	
-305.746	53.09	-233.211	
-307.903	54.74	-227.377	
-311.445	55.11	-230.34	
-310.321	51.34	-233.161	
-313.284	53.7	-227.37	
-315.645	51.48	-230.665	
-312.647	48.02	-232.391	
-317.852	49.51	-228.176	
-317.809	46.09	-231.047	
-313.333	43.88	-231.139	
-320.058	44.88	-228.233	
-317.795	40.97	-228.94	
-313.722	41.63	-228.205	
-319.916	38.49	-226.819	
-316.14	37	-224.655	
-313.906	40.53	-224.061	
-318.255	35.6	-221.834	
-315.306	37.24	-218.842	
-312.548	34.24	-219.903	
-314.931	40.51	-220.773	
-310.441	39.66	-220.03	
-309.536	35.62	-222.633	
-309.593	42.66	-222.152	
-305.555	40.53	-222.937	
-307.811	37.56	-225.206	
-304.565	43.52	-224.917	
-300.923	41.19	-226.437	
-299.481	38.39	-222.364	
-301.411	40.46	-230.05	
-303.709	37.34	-230.298	
-307.57	39.14	-228.134	
-303.632	38.8	-233.911	
-307.945	37.68	-234.547	
-309.274	40.57	-231.662	
-307.238	38.89	-237.941	
-311.565	40.6	-237.715	
-310.639	43.15	-234.399	
-310.597	42.16	-240.947	
-313.567	45.59	-239.957	
-311.41	46.76	-236.598	
-312.018	47.25	-242.919	
-312.817	51.22	-240.706	
-309.585	51.26	-237.008	
-311.191	53.1	-243.605	
-309.925	56.26	-240.487	
-306.503	53.62	-238.111	
-308.376	58.16	-243.308	
-305.76	60.17	-240.126	
-303.37	55.96	-239.122	
-304.657	62.51	-242.785	
-300.542	60.82	-241.668	
-301.595	55.89	-242.17	
-299.191	62.81	-244.574	
-295.868	60.83	-246.2	
-297.791	56.73	-248.237	
-293.711	63.55	-247.226	
-294.029	64.48	-251.433	
-292.254	68.37	-250.238	
-292.947	61.42	-253.222	
-289.956	59.3	-252.112	
-293.287	56.69	-253.448	
-286.279	58.41	-251.829	
-284.943	61.1	-249.064	
-280.948	60.53	-251.645	
-286.923	63.99	-250.761	
-283.281	66.43	-251.292	
-281.945	63.33	-253.901	
-285.664	69.04	-252.727	
-282.482	69.97	-255.909	
-281.98	65.98	-257.401	
-285.466	71.68	-257.45	
-283.111	70.68	-261.361	
-283.083	65.81	-261.531	
-285.841	71.49	-264.005	
-284.116	68.5	-267.004	
-285.049	63.93	-265.222	
-287.17	69.35	-269.323	
-286.993	65.27	-271.197	
-288.217	63.6	-267.428	
-289.765	66.98	-273.233	
-292.396	63.85	-271.451	
-291.703	65.1	-267.053	
-294.842	65.62	-273.672	
-298.031	65.88	-270.482	
-298.774	61.78	-271.296	
-295.274	66.93	-268.149	
-296.942	63.49	-265.49	
-296.313	59.55	-268.524	
-294.227	64.27	-262.973	
-293.294	60.39	-261.785	
-290.317	58.73	-265.328	
-293.775	60.1	-258.052	
-290.479	57.08	-256.963	
-293.046	53.1	-257.79	
-288.351	58.41	-259.798	
-288.408	54.28	-261.439	
-292.693	54.77	-261.113	
-285.282	52.25	-262.301	
-284.936	54.55	-266.183	
-286.774	58.24	-264.91	
-281.33	54.28	-265.264	
-280.064	58.25	-266.953	
-282.737	60.53	-264.564	
-277.003	57.22	-265.065	
-275.985	61.66	-264.527	
-279.64	63.35	-261.721	
-273.201	60.72	-262.079	
-273.425	64.61	-260.017	
-277.766	64.48	-257.797	
-271.064	62.71	-257.711	
-273.155	65.35	-254.488	
-276.514	62.82	-254.806	
-270.744	63.96	-251.949	
-273.855	64.38	-248.555	
-276.161	61.58	-250.634	
-271.43	62.45	-246.314	
-275.142	60.32	-244.581	
-275.616	58.22	-248.209	
-272.873	58.47	-242.184	
-275.552	54.85	-242.333	
-274.966	54.11	-246.455	
-272.604	53.34	-240.473	
-274.004	49.26	-242.184	
-273.063	50.53	-246.094	
-270.723	47.52	-241.788	
-271.967	43.82	-243.655	
-270.094	45.83	-247.509	
-268.948	42.64	-241.724	
-267.597	40.65	-245.762	
-266.332	44.45	-247.169	
-264.868	38.74	-243.825	
-262.216	41.14	-246.759	
-263.355	45.57	-245.055	
-258.868	39.78	-245.3	
-257.776	44.18	-245.119	
-261.078	45.74	-241.958	
-254.51	43.08	-243.294	
-255.598	46.82	-240.791	
-258.716	44.52	-239.228	
-252.343	46.62	-238.813	
-254.459	47.51	-234.858	
-257.656	44.47	-234.915	
-251.122	46.52	-233.388	
-253.059	44.34	-230.177	
-256.482	41.18	-231.988	
-17.32	-41.18	345.4	
