217.174	234.385	-51.23	
219.325	231.102	-51.19	
213.864	233.451	-53.13	
213.263	231.648	-48.99	
208.773	230.764	-49.91	
214.911	228.304	-49.46	
211.955	226.31	-46.49	
208.936	226.783	-49.31	
214.159	223.398	-47.27	
210.128	221.066	-47.95	
208.165	222.604	-52.19	
211.709	217.787	-49.11	
207.636	216.063	-50.56	
207.546	218.839	-54.47	
209.42	212.864	-51.63	
206.983	213.18	-55.53	
208.734	216.803	-58.31	
208.353	209.972	-57.16	
207.184	211.141	-61.38	
210.27	214.984	-61.87	
205.342	208.881	-62.73	
207.132	204.687	-63.16	
206.789	204.464	-58.97	
204.895	204.944	-65.7	
202.689	201.069	-66.98	
203.719	196.079	-65.95	
202.073	203.1	-69.97	
197.894	204.309	-68.9	
196.472	200.922	-65.91	
199.434	207.011	-66.61	
196.104	206.947	-63.69	
196.658	202.575	-61.68	
198.442	209.276	-61.9	
197.018	208.013	-57.87	
198.593	203.326	-57.95	
199.821	210.159	-56.33	
201.226	206.209	-54.02	
202.361	203.377	-57.09	
204.519	207.3	-52.11	
205.707	202.86	-51.31	
206.817	200.193	-55.34	
208.995	204.096	-49.66	
210.868	200.526	-51.92	
210.39	201.995	-56.71	
213.712	200.936	-49.49	
216.184	203.271	-52.01	
213.054	205.977	-53.28	
219.91	202.515	-51.26	
220.122	204.99	-47.35	
215.774	204.954	-47.01	
223.552	204.531	-46.7	
221.989	200.578	-47.83	
218.892	201.412	-44.79	
223.764	199.793	-50.45	
222.222	198.082	-53.84	
225.666	199.588	-57.06	
218.765	196.59	-54.51	
219.543	193.408	-57.8	
224.436	192.474	-57.14	
217.81	193.867	-60.93	
214.911	191.393	-58.18	
215.201	191.386	-53.53	
211.262	190.799	-59.06	
208.901	193.726	-59.9	
210.238	197.055	-63.37	
205.567	192.392	-60.13	
204.687	193.414	-55.82	
204.355	198.271	-56.47	
201.153	192.14	-56.06	
199.885	195.529	-53.32	
200.708	198.383	-56.39	
196.511	193.67	-53.61	
194.495	197.666	-53.96	
196.855	198.701	-57.4	
191.171	195.899	-54.82	
191.175	198.865	-58.67	
194.902	198.391	-61.01	
188.19	197.466	-60.84	
189.811	199.805	-64.47	
194.045	197.551	-65.49	
186.779	198.17	-66.22	
189.792	197.419	-69.65	
192.371	194.982	-67.22	
186.77	195.916	-71.07	
189.382	192.597	-72.92	
191.016	191.812	-69.08	
186.232	190.797	-73.26	
188.636	186.838	-72.89	
189.746	187.141	-68.18	
185.15	185.374	-73.1	
186.968	182.284	-70.07	
187.374	184.705	-65.83	
183.609	180.41	-69.65	
184.795	179.648	-65.37	
184.404	183.857	-62.71	
181.491	177.861	-65.76	
180.728	179.614	-61.61	
180.763	183.821	-61.94	
177.574	177.676	-60.54	
175.351	181.596	-59.55	
176.573	184.193	-62.65	
172.036	179.821	-59.72	
170.33	183.365	-62.01	
170.349	185.608	-58.47	
173.482	183.607	-64.1	
172.902	188.147	-63.01	
173.637	188.26	-58.18	
176.235	188.915	-64.72	
176.466	192.503	-61.91	
176.979	189.727	-58.63	
179.633	193.437	-63.65	
180.362	196.668	-60.42	
175.652	198.407	-59.35	
183.262	195.465	-58.36	
181.964	192.944	-55.77	
180.343	189.615	-58.83	
185.851	192.593	-55.6	
185.442	188.193	-54.96	
183.931	187.583	-58.94	
189.061	188.392	-54.57	
189.128	184.365	-56.83	
187.329	186.024	-60.34	
192.802	184.935	-56.78	
193.028	182.446	-60.7	
190.709	185.189	-62.82	
196.629	183.653	-60.76	
196.206	183.51	-65.35	
193.232	187.332	-66.45	
199.821	184.845	-65.64	
198.395	186.837	-69.59	
195.592	190.347	-67.67	
201.958	188.082	-69.92	
200.227	191.369	-72.67	
197.836	193.476	-68.92	
203.714	192.124	-73.53	
202.428	196.239	-71.88	
200.698	194.716	-67.37	
206.001	197.333	-72.31	
207.027	200.125	-69.37	
206.878	197.588	-65.12	
209.316	202.361	-71.11	
213.502	201.428	-70.27	
214.235	203.665	-74.01	
213.953	201.967	-66.62	
212.319	204.874	-64.74	
212.049	201.185	-62.32	
212.109	208.478	-63.53	
210.899	210.536	-66.89	
213.369	214.006	-64.77	
213.367	208.493	-69.1	
215.291	212.226	-70.56	
216.507	212.848	-66.51	
217.478	209.898	-72.67	
221.015	212.582	-71.76	
220.753	212.562	-67.49	
222.79	209.536	-73.11	
226.225	211.192	-70.27	
224.281	210.731	-65.81	
228.601	208.109	-70.31	
230.283	209.113	-66.14	
226.635	208.094	-62.89	
232.32	205.803	-66.41	
232.341	205.358	-61.95	
228.162	204.587	-62.13	
234.547	202.445	-63.06	
231.337	199.857	-61.34	
228.042	201.313	-64.14	
233.911	197.283	-62.37	
230.757	194.638	-64.36	
229.711	193.422	-60.42	
229.435	197.799	-65.85	
225.419	196.3	-64.07	
226.465	196.102	-59.21	
223.736	199.397	-65.42	
221.105	200.189	-62.27	
223.941	202.445	-58.91	
217.626	200.274	-63.58	
215.726	203.447	-60.84	
214.457	200.473	-57.29	
219.025	205.239	-60.59	
218.708	204.566	-56.21	
218.171	200.436	-57.39	
219.025	207.36	-53.57	
223.552	207.218	-54.01	
223.714	205.924	-58.13	
222.98	210.9	-53.62	
226.334	212.213	-56.34	
224.818	210.195	-59.76	
224.515	215.447	-55.75	
225.967	216.965	-59.83	
223.808	213.891	-63.01	
223.647	219.992	-59.59	
223.463	220.459	-63.97	
220.938	216.478	-65.37	
220.819	222.961	-62.86	
218.808	221.578	-66.84	
217.667	218.052	-64.91	
216.183	224.203	-66.27	
213	221.729	-68.48	
213.386	218.939	-65.45	
210.429	224.3	-67.3	
207.604	220.761	-66.61	
209.879	219.476	-63.3	
204.856	223.227	-65.6	
203.166	220.25	-62.66	
206.66	220.149	-60.22	
201.236	223.311	-61.62	
200.818	221.324	-57.45	
205.011	221.798	-56.88	
200.09	224.457	-55.58	
200.09	222.618	-51.65	
204.601	224.047	-51.63	
198.188	225.793	-50.95	
201.122	226.394	-47.32	
204.113	227.646	-49.99	
198.874	229.209	-45.99	
202.763	231.542	-46.59	
202.975	231.047	-51.44	
201.243	234.901	-45.47	
203.116	236.421	-49.35	
200.55	233.755	-52.52	
201.342	239.752	-48.63	
200.528	239.433	-53.19	
197.884	236.421	-52.18	
198.987	242.955	-53.36	
195.621	241.512	-56.05	
194.073	238.111	-53.74	
194.271	244.984	-55.28	
190.205	243.393	-54.91	
190.134	239.504	-51.81	
181.189	248.308	59.58	
182.702	249.764	56.29	
177.745	246.801	58.62	
180.736	243.669	57.17	
177.307	240.593	56.36	
181.458	244.928	53.74	
182.158	240.692	52.11	
178.035	240.006	52.41	
182.999	242.679	49.09	
180.15	239.73	46.8	
175.511	240.833	48.02	
180.319	241.399	43.39	
176.812	238.967	41.72	
173.496	241.435	44.1	
177.229	240.812	38.38	
172.605	241.194	38.38	
171.332	244.588	41.73	
172.308	243.047	35.04	
168.199	244.751	35.86	
169.522	247.813	39.56	
166.142	243.98	33.6	
167.082	245.302	29.28	
170.186	242.481	29.45	
163.724	245.126	29.42	
161.51	243.803	25.5	
163.214	243.655	20.6	
158.71	245.331	27.32	
156.942	241.442	28.72	
158.604	238.224	25.6	
159.573	241.498	31.57	
159.884	237.086	31.82	
161.998	235.962	27.62	
162.606	238.04	34.25	
164.996	234.378	33.35	
166.071	235.283	28.64	
167.796	235.82	35.53	
170.653	235.226	31.79	
169.076	237.793	28.67	
174.16	236.81	32.93	
175.667	236.86	28.51	
173.34	240.034	25.48	
178.912	238.564	29.78	
178.445	241.152	25.99	
174.281	243.761	27.05	
182.115	242.007	26.52	
181.536	245.698	28.58	
178.438	244.129	31.27	
184.371	248.095	27.77	
187.504	246.094	30.55	
185.099	242.417	30.68	
190.141	248.407	30.04	
188.458	247.544	26.11	
188.988	243.337	27.25	
187.518	250.464	25	
183.975	251.178	23.09	
183.438	255.959	24.2	
181.451	248.753	21.63	
179.414	251.072	18.17	
183.02	254.537	17.14	
175.886	251.631	18.38	
176.395	247.445	16.23	
180.312	244.942	16.64	
173.531	245.076	15.67	
171.346	244.008	18.64	
169.232	247.395	21.61	
169.112	241.293	17.33	
171.997	238.125	18.74	
171.056	238.641	23.56	
169.691	235.339	17.55	
170.943	232.956	21.21	
168.829	235.636	23.78	
168.765	230.326	19.47	
167.04	229.223	23.48	
165.696	233.253	24.14	
164.452	227.002	21.75	
161.234	229.513	24.32	
161.687	233.868	23.54	
157.748	228.332	22.84	
155.769	232.009	24.81	
157.635	235.799	22.35	
152.657	230.595	23.15	
151.802	234.986	22.04	
155.394	235.353	19.69	
148.917	233.345	20.51	
149.214	236.301	16.97	
153.209	235.134	16.43	
147.057	233.791	15.19	
149.03	235.212	11.24	
153.407	233.239	11.9	
146.824	232.468	9.88001	
150.515	231.889	7.00601	
154.001	229.817	9.75301	
148.832	228.763	5.26901	
153.032	227.109	4.83901	
154.665	225.475	9.27701	
150.776	224.556	3.10101	
153.492	221.558	5.22701	
153.067	222.123	9.38501	
152.53	218.277	3.44701	
151.773	216.205	7.53301	
149.9	219.21	9.80301	
149.737	213.575	5.82701	
146.661	213.822	9.21601	
149.419	211.913	11.75	
146.937	217.647	9.23001	
147.262	216.898	13.85	
151.476	214.522	14.37	
147.835	220.568	14.33	
150.048	219.345	18.17	
153.096	217.57	15.67	
150.529	222.965	18.85	
153.364	221.826	22.31	
151.328	217.64	24.32	
156.872	222.845	21.24	
158.187	219.974	18.94	
154.991	220.342	15.44	
160.725	222.951	18.48	
161.199	221.911	14.18	
157.19	223.092	13.27	
163.738	224.605	14.34	
162.196	225.723	10.11	
158.18	226.486	11.51	
164.395	228.615	10.58	
161.581	231.005	7.77401	
158.378	230.672	10.41	
163.61	233.925	8.82701	
159.742	236.379	8.34001	
156.893	234.986	12.12	
161.673	239.539	9.50601	
157.572	240.954	11.26	
157.19	237.8	14.94	
159.41	244.065	12.33	
156.037	244.609	15.4	
157.402	240.558	17.88	
157.466	247.989	16.03	
157.777	246.264	20.3	
160.329	242.014	19.2	
159.552	249.439	21.24	
162.323	248.647	24.24	
165.739	245.797	22.09	
162.246	251.695	26.24	
165.47	254.41	25.26	
162.861	257.443	27.17	
168.652	252.642	26.08	
169.013	250.443	29.22	
170.957	248.499	25.76	
169.656	249.8	32.89	
166.092	250.959	34.67	
169.112	251.9	38.26	
165.993	254.17	32.44	
165.845	256.864	35.95	
169.727	255.386	36.87	
165.59	259.664	33.36	
168.341	262.146	36.05	
171.565	259.346	36.36	
168.482	264.126	32.87	
172.746	265.236	34.59	
175.143	261	34.61	
174.302	266.933	31.5	
178.559	265.787	32.75	
178.969	260.852	32.13	
179.796	267.378	29.43	
183.367	264.656	29.34	
180.701	261.382	28.65	
183.975	266.876	26.3	
183.508	263.1	23.98	
179.223	262.294	25.26	
184.35	265.512	21.18	
181.005	264.048	18.52	
183.572	260.774	17.65	
178.827	264.104	21.56	
177.929	259.77	20.32	
182.434	257.67	20.55	
175.674	259.48	23.38	
176.501	255.541	24.52	
180.793	255.916	26.94	
173.368	253.583	24.55	
174.203	250.627	28	
176.416	247.282	25.4	
176.36	253.279	29.72	
179.626	250.295	29.46	
178.615	250.316	25.26	
181.769	249.142	32.41	
184.159	252.975	32.11	
181.132	255.577	30.5	
183.975	252.593	35.83	
183.812	256.998	36.8	
180.27	257.712	34.55	
182.985	255.421	40.13	
180.539	259.14	41.26	
176.876	259.126	37.98	
179.181	257.387	44.38	
175.546	259.89	44.43	
173.135	258.483	40.45	
174.712	257.33	47.12	
170.434	258.073	45.48	
171.473	255.761	42.15	
169.14	255.831	48.23	
165.576	254.445	45.66	
168.397	252.755	43.14	
164.848	251.921	48.39	
163.837	248.972	44.98	
167.917	248.711	43.97	
162.875	246.398	47.62	
164.282	243.011	44.96	
168.355	244.312	44.93	
163.794	241.095	48.12	
166.934	238.097	46.56	
169.897	241.074	46.91	
167.832	236.633	49.85	
171.042	234.13	48.35	
173.736	237.8	49.63	
170.314	232.454	51.61	
174.875	232.56	52.4	
174.556	236.697	53.39	
174.422	230.184	55.39	
176.246	233.876	57.58	
172.513	236.902	56.69	
176.041	232.242	61.08	
173.991	236.131	62.16	
170.059	235.82	59.35	
173.312	234.547	65.63	
169.232	236.647	64.95	
168.539	233.663	62.07	
167.98	235.778	68.49	
163.886	234.639	66.92	
164.94	231.747	63.76	
163.49	233.338	70.45	
161.39	229.781	69.04	
164.013	227.582	65.42	
272.3	179.4	35.49	
270.341	180.227	32.2	
269.726	177.873	37.94	
270.645	174.408	35.07	
268.425	171.396	37.77	
268.142	175.073	32.32	
267.788	170.618	31.39	
265.731	170.13	34.98	
265.625	172.074	28.72	
262.421	168.772	30.14	
260.64	170.271	34.47	
259.607	169.889	27.83	
256.531	167.309	30.04	
256.185	170.201	33.8	
253.88	168.546	27.61	
251.122	169.041	31.32	
252.685	172.994	33.87	
248.025	170.3	29.43	
246.094	172.23	33.05	
249.446	175.808	33.71	
243.195	171.169	33.53	
240.105	171.714	30.16	
242.382	168.871	28.05	
238.238	171.601	33.01	
234.003	169.755	32.72	
231.075	168.723	28.58	
233.663	171.65	35.87	
234.236	168.108	38.58	
233.062	164.332	35.87	
238.033	168.553	38.05	
238.967	164.226	38.51	
236.916	162.316	34.52	
242.368	165.491	37.54	
243.499	161.673	35.55	
240.19	161.729	31.84	
246.717	163.405	34.31	
245.444	162.133	29.9	
241.64	164.098	29.12	
248.131	163.688	27.54	
245.451	162.974	23.75	
241.258	165.611	23.59	
248.159	164.791	21.62	
244.532	166.722	19.53	
242.651	169.592	23.2	
246.985	167.521	16.77	
247.82	171.495	17.97	
248.442	170.59	22.15	
248.513	173.63	14.86	
252.798	172.032	14.16	
252.013	168.574	16.61	
253.653	174.146	11.46	
249.672	172.753	10.65	
251.334	168.687	11.43	
247.848	175.426	10.46	
244.136	175.886	12.16	
244.15	180.821	12.64	
241.781	173.291	13.72	
237.56	175.108	13.08	
238.337	178.148	9.19201	
235.622	175.773	16.04	
234.71	171.311	14.9	
237.574	168.73	12.29	
232.864	168.914	17.24	
234.095	168.39	20.85	
234.844	172.308	23.84	
232.15	165.668	22.22	
235.318	162.642	21.11	
238.535	163.95	24.54	
233.366	159.785	22.63	
237.298	157.975	23.99	
237.878	161.213	26.79	
234.986	155.196	25.09	
237.326	154.835	28.88	
236.598	158.958	29.86	
234.752	152.459	30.31	
234.618	155.422	34.08	
233.72	159.573	32.75	
231.606	154.192	36.21	
231.585	158.173	38.51	
230.184	161.411	35.12	
228.565	156.525	40.3	
226.642	160.711	39.81	
226.79	160.563	35.51	
223.927	158.901	41.5	
220.907	161.213	38.89	
222.944	159.884	35.43	
218.517	158.512	39.93	
216.304	159.17	35.91	
219.642	157.246	32.95	
214.317	156.348	37.27	
214.147	155.104	32.74	
218.644	153.435	31.71	
212.189	151.83	33.45	
214.473	149.97	30.03	
219.182	149.079	31.39	
212.097	147.255	31.19	
215.745	144.596	30.53	
218.751	145.834	33.19	
214.169	141.082	30.74	
217.294	139.795	33.91	
217.612	143.154	36.34	
214.989	136.868	34.97	
215.965	137.872	39.32	
219.811	136.288	38.79	
215.632	141.598	38.63	
219.67	141.662	41.11	
222.845	139.335	38.21	
219.938	145.353	40.44	
224.422	144.688	40.96	
224.407	142.44	37.28	
224.825	148.386	40.5	
229.4	147.771	40.28	
230.326	144.016	43.64	
230.418	148.45	36.72	
229.682	145.226	34.66	
225.001	145.098	35.26	
230.439	148.005	31.99	
227.391	146.244	29.29	
224.167	147.347	31.92	
228.629	148.825	26.99	
224.16	149.192	25.73	
222.944	150.409	29.66	
225.489	152.106	23.81	
221.289	154.043	24.24	
221.614	154.284	28.39	
223.014	157.126	22.79	
220.045	159.53	25.37	
221.586	158.837	30.03	
221.735	162.79	24.11	
220.603	164.629	28.23	
223.693	162.104	31.03	
222.123	167.775	26.97	
222.555	168.9	31.42	
225.843	165.329	32.17	
223.509	172.329	30.19	
227.321	171.346	32.56	
228.473	166.941	30.36	
228.735	174.599	31.26	
232.871	174.281	30.76	
233.473	170.993	27.12	
234.066	177.611	31.6	
234.781	180.008	28.06	
234.47	183.431	30.9	
237.496	178.283	26.2	
240.522	176.671	27.94	
239.115	174.118	24.64	
243.938	176.649	29.58	
243.188	178.247	33.3	
247.692	179.683	32.75	
240.89	180.97	31.74	
243.301	184.215	33.55	
246.504	182.851	31.06	
240.706	186.528	31.93	
244.199	189.399	30.9	
246.632	186.542	28.81	
241.491	190.834	28.71	
245.21	192.064	26.11	
247.084	187.786	24.69	
243.4	193.167	22.84	
247.007	192.107	20.24	
247.332	187.115	20.16	
244.815	193.026	17.17	
247.169	190.247	14.56	
245.486	186.98	16.75	
244.807	191.902	12.05	
243.125	187.786	11.58	
241.76	187.313	15.92	
241.081	189.688	9.00801	
237.206	187.907	10.4	
238.33	184.378	8.25601	
238.387	188.564	13.87	
237.369	184.067	14.49	
240.395	181.889	11.2	
238.585	184.406	18.07	
240.459	180.694	18.51	
244.8	181.302	16.36	
238.91	178.849	21.36	
242.523	176.508	22.97	
242.106	172.683	20.12	
244.815	179.308	21.9	
246.872	176.261	19.4	
242.891	175.575	17.88	
250.655	175.589	19.49	
251.285	179.202	16.88	
247.926	181.571	18.16	
254.254	179.485	19.21	
254.41	183.996	19.37	
250.45	184.421	20.88	
256.786	183.035	22.1	
255.824	186.966	24.25	
251.058	186.499	25.4	
257.79	185.849	27.34	
255.386	188.394	30.02	
250.995	186.422	29.92	
257.408	186.372	32.54	
253.477	186.91	35.03	
251.695	184.025	32.61	
255.266	185.262	37.89	
251.306	183.565	39.51	
251.101	181.366	36.03	
253.356	181.514	42	
250.415	178.092	41.26	
251.97	177.526	37.37	
252.317	176.048	43.87	
251.362	172.195	41.59	
253.576	173.376	38.13	
253.851	170.837	44.05	
254.827	167.598	40.94	
256.461	170.491	38.37	
258.165	166.665	42.27	
259.133	163.858	39.12	
261.234	167.556	37.21	
261.523	162.741	41.81	
264.79	162.868	38.48	
264.91	167.132	38.79	
267.265	161.1	40.83	
269.599	164.989	40.16	
266.346	167.959	42.28	
272.533	164.035	42.5	
271.72	168.1	44.29	
267.18	167.408	45.93	
274.336	167.181	46.98	
271.154	169.232	49.67	
268.778	165.809	48.97	
273.36	169.006	52.79	
269.846	167.712	55.4	
268.29	164.317	53.11	
272.625	167.054	57.89	
270.751	163.412	59.22	
269.577	160.485	55.33	
298.293	282.949	-61.28	
296.197	282.216	-64.51	
295.89	282.382	-58.26	
297.105	278.197	-59.52	
295.125	276.359	-55.69	
294.517	277.532	-62.17	
294.404	272.979	-61.14	
292.488	273.905	-57.56	
292.063	273.056	-64.04	
289.235	270.511	-61.24	
287.39	273.487	-57.79	
286.265	270.369	-63.62	
283.486	268.764	-60.37	
283.001	272.926	-58.14	
280.624	268.657	-62.93	
277.945	270.487	-59.62	
279.193	275.179	-59.01	
274.765	270.697	-61.69	
272.769	273.824	-59.08	
275.825	277.556	-60.14	
269.94	272.835	-58.03	
266.695	271.696	-61.14	
269.148	268.395	-62.03	
264.97	272.714	-58.42	
260.852	270.61	-57.68	
257.906	267.757	-60.84	
260.419	273.588	-55.56	
261.417	271.6	-51.68	
260.507	266.995	-52.53	
265.121	271.997	-52.56	
266.4	268.314	-50.41	
264.478	264.863	-53.16	
269.67	269.287	-52.02	
271.06	265.068	-52.3	
267.669	263.368	-55.54	
274.07	266.301	-54.32	
272.77	263.217	-57.74	
268.901	264.541	-59.07	
275.338	263.901	-60.7	
272.636	261.512	-63.71	
268.203	263.541	-64.69	
275.113	262.43	-66.53	
271.248	263.042	-69.01	
269.292	267.119	-66.75	
273.589	262.822	-71.99	
274.118	266.96	-72.59	
274.89	267.885	-68.43	
274.619	267.732	-76.35	
278.965	266.214	-76.57	
278.487	264.005	-72.86	
279.547	267.047	-79.93	
275.639	265.157	-79.86	
277.702	261.962	-77.59	
273.643	267.436	-81.03	
269.94	268.31	-79.48	
269.607	273.027	-81.07	
267.912	266.519	-76.86	
263.477	267.56	-77.94	
263.94	268.794	-82.79	
261.593	269.303	-75.41	
260.983	264.68	-74.57	
264.03	261.492	-76.05	
259.436	263.399	-71.35	
260.766	264.473	-67.93	
261.289	269.324	-66.87	
259.107	262.455	-65.44	
262.438	259.407	-65.38	
265.66	262.266	-63	
260.805	257.363	-62.71	
264.892	256.528	-60.97	
265.278	260.668	-59.77	
262.853	254.325	-58.69	
265.367	255.771	-55.24	
264.28	259.828	-56	
262.944	253.951	-52.79	
262.728	258.268	-50.59	
261.441	261.394	-53.44	
259.824	257.778	-47.95	
259.517	262.327	-47.5	
257.784	263.778	-51.85	
256.736	261.432	-45.04	
254.503	264.937	-47.1	
254.494	262.967	-50.95	
251.966	263.797	-44.67	
248.647	264.571	-47.8	
250.714	262.08	-50.53	
246.547	262.429	-45.63	
244.206	261.234	-49.43	
247.57	258.436	-51.51	
242.424	259.056	-46.9	
242.292	256.077	-50.52	
246.896	254.442	-51.01	
240.665	253.32	-48.42	
242.96	250.317	-50.88	
247.807	250.42	-49.56	
240.849	248.186	-48.57	
244.705	245.744	-48.29	
247.664	248.159	-46.56	
243.404	242.519	-46.55	
246.649	242.811	-43.31	
246.854	246.989	-42.54	
244.689	240.527	-41.05	
245.644	243.25	-37.54	
249.596	241.843	-37.59	
245.051	246.388	-39.69	
249.039	247.632	-37.66	
252.376	244.579	-39.52	
249.025	250.758	-39.82	
253.601	250.708	-39.35	
253.653	247.12	-41.76	
253.68	253.881	-41.3	
258.276	253.527	-41.5	
259.562	251.535	-36.96	
259.179	252.767	-45.08	
258.643	248.919	-45.59	
253.931	248.681	-44.71	
259.058	250.342	-49.19	
256.134	247.468	-50.76	
252.869	249.318	-48.63	
257.086	248.919	-53.98	
252.586	248.47	-55.04	
251.363	251.108	-51.87	
253.624	250.401	-58.06	
249.283	252.056	-58.23	
249.713	254.03	-54.55	
250.688	254.328	-60.88	
247.608	257.407	-59.38	
249.387	258.882	-54.95	
249.014	259.961	-61.94	
247.834	263.263	-58.89	
251.177	262.324	-55.5	
249.064	265.71	-61.42	
249.545	268.623	-57.87	
253.123	265.893	-55.9	
250.153	271.267	-60.44	
254.085	271.578	-58.1	
255.528	266.741	-58.35	
255.159	274.039	-60.69	
259.317	273.841	-61.25	
260.092	269.39	-63.24	
260.251	277.292	-61.91	
260.731	278.084	-66.18	
260.18	282.312	-64.97	
263.492	275.889	-67.31	
266.706	275.362	-65.23	
265.412	271.565	-67.09	
270.115	276.196	-63.92	
269.309	279.123	-61.14	
273.702	280.528	-62.5	
266.839	280.885	-63.58	
268.976	284.688	-63.4	
272.197	282.599	-65.27	
266.162	285.947	-65.68	
269.401	288.365	-67.98	
271.997	285.062	-68.85	
266.516	288.563	-70.41	
270.051	288.846	-73.48	
272.257	284.519	-73.14	
268.092	288.401	-76.82	
271.727	286.605	-78.96	
272.452	282.061	-77.01	
269.429	286.074	-82.02	
271.85	282.522	-83.37	
270.483	280.353	-79.94	
269.355	282.895	-86.19	
268.008	278.869	-84.85	
266.76	280.116	-80.63	
265.7	279.338	-87.84	
262.025	278.063	-85.61	
263.368	274.034	-86.2	
263.199	280.142	-82.8	
262.572	276.243	-80.32	
265.701	273.114	-82.61	
263.829	278.098	-77.27	
266.03	275.048	-75.46	
270.294	275.026	-77.93	
264.744	274.495	-72.02	
268.548	273.237	-69.8	
268.394	268.583	-70.8	
270.63	275.539	-72.05	
272.876	271.879	-73.2	
268.899	270.341	-74.07	
276.654	271.495	-73.04	
276.94	273.754	-76.96	
273.389	276.174	-76.56	
279.92	275.159	-75.1	
279.712	279.326	-76.82	
275.736	280.05	-75.4	
282.254	279.754	-74.09	
280.991	284.129	-73.7	
276.307	283.863	-72.19	
283.136	284.529	-70.53	
280.66	287.854	-69.01	
276.352	285.656	-68.02	
282.816	287.112	-65.99	
278.964	288.418	-63.75	
277.339	284.67	-64.64	
280.971	288.25	-60.55	
277.172	287.099	-58.15	
277.008	283.587	-60.39	
279.439	286.388	-55.17	
276.723	282.74	-54.26	
278.273	280.765	-57.66	
278.891	282.128	-51.14	
278.246	277.682	-51.61	
280.221	277.403	-55.34	
280.876	277.597	-48.94	
281.984	273.377	-50.47	
283.297	275.034	-54.1	
285.438	273.318	-49.08	
286.548	269.521	-50.83	
288.33	272.264	-54.24	
289.108	269.79	-48.07	
292.276	268.743	-51.35	
292	272.696	-52.81	
294.906	268.234	-48.6	
296.886	271.628	-50.96	
293.492	275.022	-50.08	
299.969	271.939	-48.59	
298.859	276.302	-48.59	
294.503	276.132	-46.58	
301.638	276.776	-45.91	
298.328	279.519	-44.13	
296.292	276.04	-43.24	
300.704	280.82	-41.34	
297.353	280.495	-38.24	
296.002	276.33	-38.82	
300.266	281.117	-35.85	
298.668	278.19	-33.03	
297.635	273.848	-35.31	
225.157	337.134	35.58	
228.806	335.748	35.61	
222.908	334.292	34.08	
223.686	332.948	38.38	
220.532	329.597	37.97	
226.939	331.11	37.96	
225.815	328.133	41.34	
222.972	326.45	38.82	
229.258	326.952	40.52	
227.328	322.66	40.42	
224.605	322.271	36.31	
230.474	320.786	39.32	
228.091	316.946	38.4	
226.239	318.658	34.35	
231.351	315.242	37.36	
229.025	313.609	33.72	
228.198	317.265	30.55	
231.874	311.608	32.17	
230.085	311.417	28.03	
230.34	316.254	26.97	
229.824	308.426	27.01	
233.713	305.951	26.68	
233.748	306.057	30.89	
231.634	304.636	24.36	
231.995	300.032	23.57	
235.834	296.759	24.81	
230.234	301.086	20.53	
226.182	299.764	21.94	
227.094	296.447	25.28	
225.963	303.094	23.88	
223.41	301.404	27.14	
226.522	298.434	29.36	
224.04	304.876	28.52	
223.785	303.434	32.75	
227.794	300.556	32.81	
224.909	306.976	33.85	
228.438	304.862	36.25	
230.856	302.868	33.27	
230.566	307.825	37.74	
234.137	304.961	38.71	
236.4	302.981	34.76	
236.167	308.023	39.92	
239.653	305.951	37.72	
238.238	306.375	32.92	
241.887	308.242	39.82	
242.396	311.268	36.91	
238.267	311.58	35.79	
245.896	312.859	37.32	
244.779	315.391	41.03	
241.3	312.93	41.8	
247.897	317.081	41.34	
248.909	312.958	40.63	
246.045	312.145	43.92	
250.634	312.93	37.91	
250.252	310.342	34.8	
251.992	313.128	31.16	
248.293	307.068	34.59	
250.634	304.586	31.45	
255.181	306.686	31.67	
248.81	303.582	28.5	
247.975	300.174	31.69	
248.414	300.867	36.26	
245.302	297.473	31.22	
241.703	298.526	30.43	
240.657	301.553	26.64	
239.723	295.415	30.64	
238.627	296.228	34.94	
235.495	299.926	34.01	
236.485	293.138	35.14	
233.593	295.465	37.78	
232.433	297.897	34.46	
231.924	292.042	37.95	
227.922	294.064	37.55	
229.088	295.868	33.82	
226.239	290.656	37.15	
224.33	292.565	33.15	
227.519	294.043	30.47	
222.611	289.475	31.38	
222.428	291.922	27.47	
227.087	292.353	26.17	
220.844	288.698	26.14	
223.524	289.412	22.48	
227.179	289.15	24.78	
221.918	286.35	21.47	
225.878	284.936	19.58	
227.858	285.643	23.28	
224.323	281.542	19.69	
228.608	279.802	20.06	
229.583	281.231	24.61	
226.592	276.585	20.3	
230.064	275.517	23.32	
229.145	278.133	27.33	
228.41	272.081	24.2	
230.001	272.611	28.38	
227.356	276.104	30.79	
228.332	269.188	28.45	
226.882	270.638	32.53	
224.464	274.046	31.93	
225.503	267.35	34.04	
221.466	269.408	35	
220.837	271.875	31.63	
219.776	266.006	35.29	
216.262	267.682	32.96	
215.151	269.924	36.33	
218.567	269.478	30.54	
215.519	272.95	31.39	
216.276	274.032	36.1	
217.725	275.27	29.31	
215.922	278.628	31.84	
218.086	277.03	35.22	
217.902	281.033	29.73	
216.771	284.427	32.65	
211.969	283.288	34.08	
219.917	285.381	34.47	
220.398	282.779	37.35	
220.914	278.869	34.69	
223.799	284.752	37.14	
226.076	281.061	38.1	
224.966	279.201	34.35	
228.876	283.352	38.1	
231.217	279.88	36.12	
228.622	279.788	32.7	
233.868	282.461	35.75	
235.325	280.156	31.99	
231.712	280.799	29.95	
237.482	283.09	31.49	
237.029	282.27	26.98	
232.362	283.543	25.96	
239.179	285.353	26.24	
236.725	285.827	22.33	
232.433	287.149	24.31	
238.861	288.782	21.56	
235.403	290.119	18.81	
232.405	290.854	22.63	
237.772	292.7	17.54	
234.42	295.486	19.05	
234.074	293.711	23.8	
236.647	298.35	18.18	
236.004	301.539	20.82	
237.531	299.87	25.21	
236.478	304.459	18.71	
240.43	306.163	19.18	
239.568	308.016	15.24	
240.636	307.231	22.72	
237.765	308.97	24.56	
239.801	306.085	27.23	
235.558	311.884	25.56	
233.19	312.414	22.21	
233.317	316.954	23.84	
236.287	312.004	19.89	
235.601	315.942	18.01	
236.457	317.632	21.87	
238.634	315.03	15.84	
240.034	319.428	16.2	
239.971	319.633	20.48	
243.181	317.837	14.88	
245.14	321.394	17.25	
243.994	320.418	21.9	
248.817	320.263	17.15	
249.835	322.497	21.06	
247.593	319.93	24.73	
253.413	321.041	20.79	
253.88	321.14	25.26	
250.896	318.042	25.55	
257.323	319.959	24.11	
256.277	316.197	26.31	
252.642	315.165	23.77	
259.791	315.37	25.2	
258.674	311.254	23.71	
258.716	310.08	27.8	
255.746	312.909	22.16	
253.434	309.564	24.44	
254.566	310.554	29.16	
250.174	310.986	23.07	
247.721	310.469	26.41	
248.866	314.274	29.32	
244.765	308.334	25.47	
241.534	310.151	28.18	
242.403	307.443	32.02	
243.139	313.496	27.97	
243.478	313.298	32.39	
245.416	309.522	31.54	
242.29	316.041	34.8	
245.981	318.431	33.91	
246.731	317.116	29.89	
243.407	321.147	34.12	
245.246	323.834	31	
245.027	320.942	27.88	
241.908	325.474	31.56	
242.007	327.072	27.26	
241.944	323.035	24.52	
238.401	328.274	27.54	
237.8	328.027	23.19	
237.963	323.197	22.31	
234.208	328.649	24.4	
233.211	325.969	20.74	
234.413	322.646	23	
229.555	326.655	21.4	
228.367	322.61	19.7	
230.39	320.871	22.85	
224.818	323.332	20.96	
224.605	318.877	22.17	
227.328	319.549	25.29	
220.957	319.414	23.29	
221.452	316.374	26.58	
224.499	318.559	28.65	
218.157	317.83	27.61	
219.182	316.522	31.91	
222.336	319.308	32.03	
216.863	318.842	33.65	
218.086	317.76	37.66	
220.957	321.536	37.14	
214.713	319.294	38.36	
216.947	321.868	41.62	
218.538	324.378	38.58	
213.539	323.013	42.99	
215.349	327.143	41.84	
215.583	326.344	37.03	
212.224	329.137	42.89	
212.606	330.876	38.75	
211.969	326.987	36.04	
209.318	332.75	39.43	
208.604	331.485	35.01	
208.25	327.595	36.48	
205.337	333.479	34.77	
203.272	330.028	32.53	
204.113	326.641	35.21	
200.189	332.121	33.22	
197.82	328.55	34.11	
200.21	325.736	37.44	
294.475	221.43	0.84671	
297.593	223.686	1.16801	
293.598	220.186	4.43901	
292	224.471	4.34001	
289.787	223.856	8.38101	
295.062	226.359	5.32501	
292.523	229.605	7.41701	
291.674	226.918	10.41	
295.981	231.097	7.84301	
294.708	231.662	12.37	
294.722	227.264	14.52	
298.053	232.985	13.62	
296.829	232.511	18.02	
297.331	227.766	18.05	
300.259	233.89	19.04	
300.386	230.51	22.19	
301.143	226.218	19.86	
303.78	231.358	23.67	
304.487	227.257	25.49	
304.968	224.796	21.24	
305.11	227.483	28.58	
308.68	229.994	29.99	
306.396	233.267	28.71	
308.249	227.596	32.39	
309.373	228.876	36.74	
312.124	232.914	38.5	
309.395	225.178	37.11	
305.336	224.853	38.98	
304.551	229.173	40.86	
303.865	225.051	35.41	
300.139	227.08	36.72	
301.73	231.429	38.09	
299.637	227.158	32.95	
297.261	230.948	33.18	
300.824	234.031	34.81	
297.31	231.04	29.34	
299.149	235.424	29.7	
302.974	234.993	31.74	
299.962	236.591	26	
302.642	240.133	27.47	
306.799	238.804	29.8	
303.427	240.904	23.78	
307.683	241.597	25.39	
309.055	236.973	26.75	
308.214	243.471	22.18	
310.073	240.339	20.01	
307.139	237.333	21.14	
312.64	241.732	17.53	
309.571	243.245	14.43	
306.361	243.061	17.39	
311.848	244.362	12.01	
313.376	245.804	15.8	
309.204	247.289	16.37	
316.282	244.454	16.08	
317.823	242.771	19.46	
321.069	239.667	17.39	
316.487	242.835	23.06	
320.334	242.382	25.64	
323.926	244.023	22.47	
320.482	239.547	27.85	
318.347	242.955	30.3	
316.19	246.526	28.26	
316.579	242.318	33.6	
313.849	239.532	33.82	
314.818	234.887	32.28	
312.336	239.914	37.13	
309.027	242.516	35.49	
306.609	238.854	33.1	
307.344	242.785	38.84	
303.299	242.587	36.68	
303.985	238.507	35.6	
302.09	243.231	40.23	
298.845	240.254	39.47	
301.666	237.149	38.53	
297.869	240.381	43.19	
298.293	235.573	43.02	
302.288	234.406	41.56	
298.003	234.448	46.79	
299.806	230.382	45.69	
304.409	231.436	44.4	
299.368	229.689	49.45	
303.618	227.844	49.05	
305.428	231.549	47.77	
302.96	227.37	52.63	
307.408	228.296	53.44	
307.019	231.938	51.29	
306.347	228.933	56.94	
309.861	231.924	57.35	
308.044	235.438	54.56	
308.299	232.355	60.75	
309.557	236.753	60.09	
306.474	238.564	56.75	
308.023	238.005	63.41	
307.019	241.838	61.35	
303.264	241.208	58.12	
305.88	242.41	64.93	
302.338	244.397	62.83	
300.4	241.526	60.47	
300.584	246.151	65.83	
296.561	244.235	64.69	
297.642	240.324	63.53	
295.217	244.871	68.18	
293.407	240.742	68.21	
290.437	242.014	65.51	
296.497	239.207	66.58	
293.28	237.192	63.93	
291.271	240.897	61.45	
296.037	235.707	61.83	
292.905	235.587	58.42	
293.067	239.95	58.41	
295.514	233.967	56.32	
292.806	234.554	52.67	
288.068	233.777	54.53	
294.34	237.121	50.46	
293.407	240.6	51.91	
295.528	240.176	56.17	
296.207	241.336	49.3	
297.89	244.602	51.9	
299.156	241.781	54.88	
300.089	245.09	49	
303.349	245.932	52.22	
303.031	242.007	53.91	
305.583	245.96	49.25	
308.999	244.525	52.05	
307.068	240.94	52.9	
310.879	244.058	48.86	
312.98	240.544	50.99	
309.543	237.05	51.32	
314.945	239.851	47.79	
314.988	235.424	49.1	
310.222	234.392	48.36	
316.968	234.717	46.01	
315.49	230.397	46.41	
310.816	231.676	45.43	
317.922	229.52	43.75	
314.111	228.099	41.63	
311.403	232.362	42.02	
316.296	227.469	38.62	
314.047	228.021	35.12	
313.128	232.9	35.04	
315.405	225.532	32.87	
318.325	227.137	30.12	
319.591	222.901	29.71	
316.515	229.654	28.09	
312.965	229.103	26.76	
313.453	233.282	28.17	
310.356	227.752	24.36	
310.208	223.799	25.37	
309.098	223.495	20.72	
314.09	223.594	25.57	
314.259	220.313	22.62	
312.704	223.142	19.83	
318.014	220.377	23.29	
318.672	219.719	18.79	
316.345	223.036	17.38	
322.144	220.773	19.81	
322.214	222.258	15.38	
318.842	225.772	15.24	
325.474	224.372	15.44	
323.996	227.123	12.1	
320.341	229.93	14.02	
327.284	229.209	12.62	
325.248	232.942	11.17	
322.794	232.85	14.7	
328.861	234.137	11.69	
327.072	236.775	14.81	
325.411	233.345	17.43	
330.657	237.857	14.97	
330.841	237.673	19.48	
328.72	241.35	19.43	
329.038	234.385	19.18	
326.111	236.322	22.24	
324.527	240.31	19.65	
324.046	233.154	22.1	
320.242	234.837	22.28	
319.351	236.294	17.67	
318.41	233.416	25.26	
314.083	233.359	23.7	
312.965	237.871	24.93	
315.377	232.772	20.19	
313.305	236.541	19.07	
315.631	238.175	22.33	
310.738	236.845	16.25	
314.132	236.987	13.26	
317.024	234.66	15.46	
311.679	234.915	11.36	
314.698	232.32	9.27101	
316.452	230.849	12.85	
311.495	230.573	8.44101	
313.856	226.656	8.10201	
315.476	225.885	12.67	
310.575	224.704	7.86401	
312.407	221.035	9.48101	
313.376	222.187	14.12	
308.73	220.045	9.44201	
310.031	217.612	13.2	
310.08	221.24	15.35	
306.573	216.12	13.29	
306.729	215.682	17.89	
306.941	219.854	18.05	
303.031	214.713	17.76	
302.514	217.209	21.61	
303.08	220.745	19.38	
298.873	216.184	21.7	
297.727	220.158	23.49	
298.972	222.449	20.16	
294.255	218.821	22.72	
292.926	223.262	22.5	
295.309	223.849	19.07	
289.857	222.654	20.46	
288.797	226.826	20.02	
291.208	226.394	15.97	
285.487	225.185	19.25	
285.424	227.936	15.44	
288.181	225.32	13.55	
281.74	226.953	14.88	
283.578	225.397	10.93	
286.428	221.982	12.94	
280.212	223.955	9.59401	
282.687	220.207	8.95001	
283.861	219.175	13.52	
279.364	218.439	7.93101	
281.301	215.088	10.47	
280.453	217.492	13.78	
278.544	212.613	9.56701	
278.254	211.064	13.86	
277.73	214.84	16.08	
275.149	209.36	12.54	
272.972	210.265	16.18	
273.353	215.116	17.32	
-139.863	164.357	-273.353	
