262.004	12.17	189.554	
261.41	8.328	189.017	
261.226	13.85	186.089	
257.097	13	187.815	
255.06	15.55	184.477	
256.581	9.47	186.634	
252.006	10.15	186.259	
252.727	12.62	182.992	
252.204	6.533	185.354	
249.503	7.734	181.691	
252.289	10.21	178.481	
249.474	4.298	180.022	
247.601	5.959	176.098	
251.709	7.985	174.677	
247.65	2.435	174.634	
249.347	4.382	170.816	
254	5.706	171.537	
249.58	1.145	168.744	
252.564	2.798	165.76	
256.376	3.333	168.878	
251.468	2.502	162.755	
250.57	-1.729	161.249	
247.325	-1.644	163.929	
251.376	0.03484	158.463	
249.241	-1.145	154.517	
246.533	-5.402	153.265	
252.062	0.7263	153.11	
249.821	4.536	152.382	
245.302	3.147	152.092	
250.323	5.358	156.122	
246.561	7.667	156.49	
243.231	4.184	156.002	
247.629	7.661	160.089	
243.436	7.775	161.595	
241.937	3.347	159.983	
244.822	7.31	165.159	
241.915	3.524	165.52	
243.238	0.718	162.5	
242.757	1.967	169.062	
240.565	-2.013	168.002	
242.637	-4.684	164.374	
241.661	-3.464	171.431	
242.41	-7.313	168.984	
246.292	-5.936	166.092	
242.318	-9.034	172.329	
246.504	-9.131	172.951	
247.19	-5.004	171.841	
247.459	-12.3	174.967	
246.038	-10.7	179.075	
243.605	-7.651	177.123	
247.063	-13.45	181.019	
245.104	-15.14	177.463	
241.823	-12.36	178.481	
247.452	-16.95	176.105	
248.223	-17.07	172.082	
252.975	-18.44	172.279	
246.222	-15.68	169.133	
247.346	-18.48	165.604	
248.859	-22.6	168.051	
248.923	-16.93	162.755	
244.291	-16.63	162.012	
241.145	-16.84	165.442	
242.792	-14.47	159.269	
243.669	-10.73	158.958	
248.456	-9.322	158.837	
241.498	-9.316	156.462	
238.521	-7.971	159.58	
241.244	-4.302	161.383	
236.287	-6.373	157.006	
235.41	-3.08	160.004	
239.419	-1.644	159.672	
232.999	-2.009	157.183	
234.236	2.242	157.925	
238.366	1.305	157.19	
232.299	3.343	154.772	
236.506	5.438	153.534	
239.787	2.467	153.506	
235.848	6.559	149.808	
240.395	7.067	149.221	
242.106	2.479	149.489	
239.299	8.055	145.65	
242.856	5.393	144.356	
241.208	1.846	146.145	
241.597	6.467	141.089	
242.552	2.273	139.427	
240.261	0.5625	142.567	
240.317	3.228	136.712	
239.278	-1.271	136.196	
236.654	-1.842	140.233	
236.951	0.1587	133.572	
234.173	-3.312	135.079	
232.589	-1.887	139.491	
231.259	-2.262	132.759	
228.445	-3.639	135.998	
228.473	-0.3864	139.788	
226.175	-2.567	133.176	
223.736	-0.7878	136.606	
226.09	2.162	138.494	
220.433	0.0724	134.817	
220.582	4.416	136.366	
224.683	5.388	136.083	
218.157	5.505	133.7	
220.695	9.217	133	
219.323	10.79	136.634	
223.87	7.159	133.219	
225.079	10.78	135.97	
222.088	10.34	139.809	
228.339	8.966	136.811	
228.261	11.34	140.707	
224.81	9.014	141.895	
231.542	9.761	141.527	
231.238	11.53	145.791	
228.997	16.09	145.063	
230.63	8.629	148.096	
226.889	7.764	148.019	
226.578	6.556	143.38	
228.537	4.767	149.907	
225.68	1.945	147.955	
227.434	2.582	144.08	
227.314	-0.4732	150.14	
226.932	-3.368	146.562	
229.343	-0.9227	144.009	
229.018	-5.563	148.719	
230.658	-7.483	144.815	
232.369	-3.903	143.529	
233.105	-9.176	147.177	
236.068	-8.977	143.649	
237.27	-4.172	143.295	
238.748	-10.59	145.919	
241.823	-8.173	143.408	
240.819	-3.709	145.12	
244.461	-9.812	145.579	
247.183	-6.264	144.412	
244.39	-3.083	146.923	
249.913	-8.195	145.926	
250.16	-4.376	148.507	
245.345	-4.23	150.069	
252.798	-6.129	150.536	
252.628	-4.88	154.524	
248.279	-6.569	156.186	
256.121	-4.918	155.556	
257.154	-8.538	157.777	
261.283	-7.474	156.617	
255.068	-8.475	160.853	
254.375	-5.264	162.818	
250.683	-7.682	162.55	
255.216	-2.567	165.371	
258.016	-0.2569	163.419	
259.487	0.4504	167.888	
259.791	-3.446	162.069	
263.652	-2.167	163.865	
261.707	-2.587	167.648	
265.073	-5.36	162.302	
267.541	-5.963	166.057	
264.38	-5.792	168.935	
267.859	-9.372	164.466	
268.397	-10.63	169.02	
264.041	-9.581	170.971	
268.071	-14.49	168.638	
266.466	-14.97	172.93	
261.835	-13.11	172.895	
266.021	-18.75	172.103	
262.655	-19.08	175.044	
260.307	-16.67	172.442	
263.086	-22.7	173.906	
258.971	-22.26	172.223	
260.031	-18.9	169.324	
259.699	-25.9	171.495	
258.207	-25.54	167.188	
254.29	-25.66	168.843	
260.18	-22.37	167.054	
256.164	-20.59	165.555	
253.151	-21.47	169.416	
257.825	-17.21	165.307	
254.679	-14.79	166.616	
254.848	-15.2	171.537	
253.908	-12.27	163.992	
252.607	-8.682	166.566	
247.975	-9.888	166.955	
254.976	-9.748	169.288	
251.384	-10	171.891	
249.884	-12.54	168.723	
251.072	-8.248	175.313	
253.576	-11.55	177.194	
255.923	-12.58	173.715	
254.855	-8.542	179.025	
259.112	-9.985	179.435	
259.763	-10.34	175.249	
259.402	-6.412	180.56	
263.772	-6.365	179.16	
263.404	-7.012	174.295	
263.956	-2.585	179.683	
267.194	-2.124	176.727	
264.932	-3.154	172.485	
266.339	1.515	177.441	
267.456	1.959	172.93	
263.758	0.2719	171.961	
267.053	5.671	173.333	
265.787	6.172	168.942	
262.443	3.926	169.882	
264.953	9.808	169.776	
261.283	9.303	167.082	
259.437	6.786	169.918	
260.427	12.99	167.655	
256.015	12.08	167.4	
255.987	9.538	170.823	
255.845	15.61	168.702	
251.695	14.5	170.448	
253.625	11.87	173.185	
251.574	17.23	172.972	
247.876	15.93	174.832	
250.832	13.75	177.816	
248.018	19.52	175.964	
247.219	17.87	180.298	
251.228	16.64	180.531	
246.561	21.45	181.521	
250.097	20.35	184.208	
253.385	19.85	180.638	
250.224	23.8	185.92	
254.665	23.55	184.873	
254.29	23.48	180.015	
254.933	27.16	186.16	
257.592	27.51	182.37	
254.049	27.25	180.256	
258.702	31.09	183.24	
258.2	32.45	178.933	
254.092	31.14	178.092	
258.716	35.86	180.539	
255.626	37.61	177.972	
251.454	34.91	178.184	
172.619	47.46	256.878	
176.43	47.42	256.036	
170.823	48.83	253.724	
171.777	44.5	252.628	
169.098	44.75	248.803	
175.193	44.88	251.193	
174.578	41.39	248.272	
171.961	43.82	246.08	
178.127	42.2	247.551	
176.847	42.13	243.033	
174.217	46.19	242.128	
180.178	43.19	241.541	
178.389	43.95	237.39	
176.282	48.04	238.649	
181.882	44.96	236.16	
179.761	48.5	234.038	
178.453	51.8	237.468	
182.9	50.02	232.454	
181.118	54.13	231.832	
180.694	55.36	236.64	
181.302	55.04	228.82	
185.488	55.31	226.896	
185.509	51.12	227.158	
183.621	57.56	225.228	
184.626	58.19	220.688	
188.868	56.88	218.001	
182.702	61.25	221.339	
178.884	59.75	219.5	
180.312	56.3	216.516	
178.212	57.93	222.859	
175.985	54.59	220.985	
179.45	52.3	218.51	
176.105	53.34	224.542	
176.105	49.06	223.269	
180.425	48.94	220.928	
176.685	48.1	226.932	
180.461	45.66	225.419	
183.162	48.59	223.707	
182.2	44.3	228.77	
186.103	43.27	226.423	
188.67	47.16	224.704	
187.68	42.18	229.796	
191.421	44.34	228.176	
189.894	49.13	228.148	
193.309	42.35	230.814	
193.408	45.37	233.826	
189.172	46.45	233.395	
196.597	45.06	235.87	
195.197	41.43	238.401	
192.064	40.53	235.452	
198.032	41.2	240.515	
199.538	41.78	236.464	
196.894	38.43	235.431	
201.313	44.51	236.669	
201.25	47.52	233.904	
202.586	51.28	236.81	
199.807	47.59	230.397	
202.395	50.67	228.091	
206.659	50.57	230.899	
200.762	53.56	226.755	
200.444	50.24	223.396	
200.861	45.7	224.393	
198.223	50.59	220.384	
194.497	51.38	220.858	
193.033	55.27	223.594	
192.948	51.04	217.457	
191.81	46.76	218.312	
188.189	47.79	221.508	
190.106	46.42	214.925	
186.952	43.85	216.947	
185.418	47.24	219.048	
185.778	43.53	213.313	
181.528	43.97	214.734	
182.405	47.77	216.544	
180.348	44.23	211.107	
178.177	48.28	212.57	
181.132	51.04	214.423	
176.89	49.91	209.19	
176.345	53.91	211.432	
180.913	55.27	212.521	
175.256	55.11	207.995	
177.809	58.82	208.978	
181.451	56.54	209.297	
176.628	59.7	205.634	
180.758	61.58	204.757	
182.554	57.93	205.789	
179.683	61.33	201.165	
184.173	60.94	200.069	
184.908	56.45	201.738	
182.66	60.56	196.632	
186.248	57.54	196.156	
185.012	53.61	198.805	
185.072	56.52	192.523	
186.649	52.38	193.492	
183.51	50.07	196.63	
185.473	52.17	189.859	
183.829	48.13	191.221	
180.959	48.83	194.232	
182.966	46.49	187.841	
178.663	45.56	189.316	
177.623	49.01	191.487	
177.535	45.14	185.776	
173.725	47.49	186.758	
172.357	44.19	188.974	
175.766	50	188.819	
172.287	49.24	191.873	
172.838	44.58	193.16	
174.068	51.43	194.334	
171.848	49	197.544	
174.252	45.59	196.413	
173.418	51.22	200.076	
171.82	48.41	203.371	
167.287	46.89	201.681	
174.839	46.65	204.877	
175.688	43.69	202.473	
176.748	46.21	198.584	
178.771	44	204.905	
181.528	42.93	201.582	
180.758	46.6	199.524	
184.032	43.04	204.311	
186.811	44.92	201.108	
184.194	48.3	200.472	
189.024	45.41	203.986	
190.796	49.09	201.79	
187.164	51.12	201.886	
192.526	49.72	205.009	
192.163	54.19	203.958	
187.369	55.22	204.509	
193.884	55.06	207.328	
191.301	58.96	207.225	
186.931	57	208.059	
193.019	59.86	210.456	
189.434	62.63	211.213	
186.337	58.8	211.623	
191.393	64.01	214.062	
187.666	62.57	216.375	
187.595	57.76	214.748	
189.476	63.56	219.514	
188.345	61.04	222.626	
190.148	56.61	221.388	
188.416	63.25	225.525	
192.078	62.89	227.802	
190.94	66.88	229.364	
192.206	59.39	229.088	
189.066	57.58	230.39	
191.513	54.83	227.943	
186.471	56.67	232.985	
184.01	60.01	233.041	
183.452	58.54	237.56	
187.143	62.35	233.02	
185.934	64.36	236.775	
186.485	60.57	238.627	
189.038	66.52	236.216	
189.752	66.33	240.735	
189.745	62.07	241.166	
193.061	67.63	239.547	
194.532	65.4	243.45	
193.599	60.71	242.545	
198.343	65.5	242.891	
199.015	61.68	245.331	
197.191	57.9	242.63	
202.777	61.93	244.397	
203.265	57.48	244.758	
200.783	57.05	241.3	
206.829	58.62	244.023	
206.348	56.28	240.261	
202.897	58.74	238.62	
209.954	57.39	239.907	
209.431	58.72	235.622	
209.693	54.59	234.653	
206.221	60.3	236.711	
204.481	57.87	233.218	
205.521	53.2	234.583	
201.045	59.26	234.109	
198.683	55.89	233.359	
199.305	53.12	237.404	
196.116	56.72	230.835	
192.616	54.04	232.214	
193.889	50.11	229.81	
193.804	54.39	235.834	
194.129	49.97	235.792	
196.604	50.7	232.327	
192.538	47.64	238.373	
195.862	48.66	241.272	
196.788	52.64	239.921	
192.948	48.52	243.62	
194.384	51.75	246.427	
194.56	54.76	243.422	
190.827	51.22	247.579	
190.664	55.58	249.015	
191.145	58.16	244.857	
186.902	55.3	249.665	
186.301	59.64	249.135	
187.207	60.35	244.411	
182.702	58.42	249.34	
182.094	61.97	246.413	
183.812	59.6	243.422	
178.382	61.3	246.589	
177.724	62.84	242.297	
180.072	59.65	241.081	
174.167	61.57	242.601	
174.599	60.2	238.21	
177.222	57.13	239.405	
170.964	59.06	238.309	
171.855	55.67	235.438	
174.563	53.71	238.104	
168.419	54.66	236.471	
169.592	50.32	235.438	
172.315	50.33	238.656	
166.983	48.65	237.482	
168.397	44.61	236.775	
170.674	45.3	240.862	
164.89	43.94	237.878	
166.665	40.79	240.77	
167.874	43.94	243.379	
163.137	39.43	241.47	
164.346	40.75	245.776	
164.622	45.53	244.793	
160.952	39.74	247.332	
161.107	43.94	249.015	
160.973	46.5	244.906	
157.522	43.3	250.337	
157.013	47.67	248.866	
157.211	46.05	244.991	
153.449	47.94	250.309	
151.943	50.03	246.582	
153.258	47.24	243.429	
148.598	49.39	248.23	
146.767	48.36	244.404	
149.539	44.95	242.057	
200.755	-65.69	250.945	
202.515	-63.72	248.053	
196.972	-64.95	250.627	
197.728	-68.05	247.325	
193.203	-68.61	246.618	
198.754	-65.81	244.461	
197.007	-68.71	241.399	
193.196	-67.6	242.665	
198.541	-66.15	239.158	
194.285	-66.22	236.909	
191.081	-63.9	239.829	
195.07	-63.44	234.427	
190.678	-63.09	233.161	
189.292	-60.8	237.093	
191.69	-60.34	230.736	
187.935	-58.04	232.228	
188.889	-56.35	236.789	
188.352	-54.96	229.972	
185.792	-52.23	232.532	
188.79	-52.07	236.464	
183.473	-50.93	230.892	
184.583	-48.36	227.236	
185.792	-51.98	225.461	
181.578	-47.12	228.261	
178.742	-45.43	225.016	
179.69	-44.09	220.108	
177.293	-43.85	228.021	
173.892	-46.76	228.452	
173.333	-48.6	224.061	
176.388	-49.13	230.199	
174.365	-52.85	228.827	
175.207	-52.75	224.026	
177.385	-54.36	230.474	
177.448	-57.86	227.724	
178.445	-55.48	223.474	
180.8	-58.91	229.322	
182.646	-58.91	224.931	
182.278	-54.83	223.46	
186.436	-59.71	225.383	
187.419	-58.32	221.006	
186.754	-53.49	220.115	
191.188	-58.95	221.763	
191.817	-55.02	219.436	
189.717	-51.66	222.527	
195.395	-56.19	219.111	
196.95	-53.97	222.364	
193.853	-55.05	225.178	
200.564	-52.95	221.579	
202.402	-57.11	222.428	
198.549	-59	222.039	
205.796	-56.22	222.003	
203.682	-54.39	218.743	
201.928	-58.44	218.093	
204.241	-51.21	219.033	
201.412	-48.26	218.609	
203.548	-44.78	221.423	
197.834	-48.43	217.237	
197.085	-44.16	215.583	
201.743	-42.56	214.743	
194.355	-42.32	217.039	
192.474	-44.83	213.546	
194.461	-48.68	211.842	
188.699	-45.22	213.08	
186.499	-46.46	215.986	
186.719	-44.22	220.433	
183.197	-47.01	214.621	
184.053	-51.39	213.907	
183.89	-52.74	218.595	
180.574	-52.03	212.578	
180.673	-56.09	214.6	
180.602	-54.21	218.489	
177.349	-56.42	212.832	
175.659	-58.33	216.502	
176.664	-54.9	218.892	
172.173	-58.19	215.038	
170.922	-56	219.118	
173.489	-52.43	219.804	
167.294	-54.74	218.503	
167.648	-51.91	222.109	
170.964	-48.63	220.631	
164.049	-50.94	221.042	
165.527	-46.62	221.826	
168.567	-46.83	218.786	
162.069	-45.98	220.759	
163.561	-42.21	218.56	
166.361	-44.59	216.467	
160.28	-42.43	216.749	
162.345	-40.4	213.129	
165.145	-44.12	211.743	
158.979	-40.99	211.687	
161.475	-41.75	207.776	
163.617	-46.11	208.462	
158.357	-42.68	205.662	
160.987	-45.61	203.456	
161.935	-49.57	206.327	
157.621	-45.85	201.73	
158.583	-50.31	201.759	
158.823	-51.56	205.761	
155.889	-51.68	199.362	
154.566	-54.8	202.522	
154.687	-52.65	206.079	
151.201	-55.24	200.656	
149.115	-55.22	204.722	
150.621	-59.06	205.478	
151.3	-52.35	205.931	
151.597	-55.16	209.735	
154.071	-59.05	208.109	
154.05	-52.74	211.241	
155.592	-56.38	213.518	
157.063	-57.96	209.784	
157.968	-54.05	215.243	
160.103	-57.72	217.068	
156.313	-61.03	218.029	
163.469	-57.96	215.399	
162.946	-59.72	211.962	
160.117	-56.5	209.982	
166.601	-58.29	211.842	
166.106	-57.38	207.529	
163.186	-54.32	208.328	
169.642	-56.43	207.812	
168.482	-53.01	204.87	
165.703	-51.29	207.649	
171.961	-51.89	205.634	
170.526	-47.55	204.806	
167.874	-47.61	208.024	
173.955	-46.59	206.185	
171.848	-42.79	207.727	
168.977	-44.37	211.446	
175.214	-41.68	209.311	
172.654	-39.58	212.578	
170.957	-43.55	214.84	
175.879	-38.43	214.02	
173.51	-37.94	217.944	
172.838	-42.79	218.333	
176.572	-36.19	219.267	
176.31	-39.58	222.357	
176.239	-43.51	219.175	
179.563	-38.28	223.771	
181.825	-41.43	225.327	
183.056	-44.18	221.409	
183.494	-39.92	228.183	
187.553	-38.73	227.236	
187.1	-36.09	230.8	
189.363	-41.87	226.416	
188.84	-45.15	228.353	
189.193	-45.96	224.04	
189.377	-47.58	231.21	
187.171	-45.92	234.264	
190.53	-48.09	236.845	
188.486	-42.37	233.374	
190.035	-41.78	237.482	
192.715	-45.01	236.64	
191.039	-38.31	236.195	
194.949	-38.75	238.649	
196.215	-42.49	236.959	
195.862	-35.82	236.464	
200.175	-37.58	237.1	
199.977	-41.93	234.894	
202.134	-35.52	234.434	
205.245	-38.82	233.868	
202.968	-42.58	231.478	
206.779	-36.62	231.061	
208.413	-40.25	229.004	
204.389	-41.37	228.077	
209.834	-37.41	226.875	
207.267	-39.13	223.644	
203.279	-38.5	225.793	
209.015	-36.34	221.754	
205.202	-34.86	219.91	
205.516	-38.15	217.192	
203.668	-35.23	223.283	
200.472	-37.69	220.964	
203.222	-41.37	219.062	
198.718	-38.31	224.273	
197.488	-42.26	223.665	
201.483	-44.9	224.62	
193.776	-42.47	223.983	
193.273	-46.68	225.758	
193.167	-49.09	221.621	
196.576	-46.32	227.547	
197.848	-49.93	225.284	
196.59	-47.6	221.876	
199.34	-53.08	226.903	
203.307	-50.97	227.179	
201.907	-46.92	227.589	
203.286	-52.87	230.453	
205.506	-49.79	232.9	
202.671	-46.69	232.2	
204.283	-52.15	235.537	
204.248	-48.69	238.542	
200.818	-45.65	236.739	
202.487	-50.87	241.152	
200.663	-47.37	243.117	
197.551	-45.66	239.865	
198.881	-50.23	244.899	
195.423	-47.07	244.963	
194.801	-47.85	240.918	
193.471	-49.5	247.056	
189.498	-47.9	245.373	
190.756	-49.31	241.71	
187.737	-50.8	247.134	
185.078	-51.14	243.429	
188.324	-52.64	241.173	
183.162	-53.93	245.203	
182.37	-55.98	241.187	
186.514	-56.71	240.438	
181.196	-58.7	243.492	
182.264	-61.68	240.162	
186.344	-60.79	240.607	
182.525	-64.7	242.304	
183.834	-67.37	239.158	
188.083	-66.24	240.706	
182.568	-69.85	241.696	
186.62	-72.07	241.039	
188.592	-69.14	243.45	
185.311	-75.07	243.054	
188.897	-73.97	245.691	
187.256	-69.57	247.049	
188.232	-76.72	248.336	
188.592	-73.27	251.228	
184.816	-70.55	249.771	
187.539	-75.77	253.979	
185.071	-72.07	255.315	
182.667	-72.81	251.921	
183.855	-73.79	258.511	
179.605	-72.22	257.953	
178.75	-73.52	253.858	
178.905	-74.65	260.774	
175.207	-75.9	258.957	
175.907	-77.14	254.155	
333.952	-10.85	247.289	
334.822	-9.886	243.591	
330.332	-9.552	247.94	
329.738	-13.37	245.564	
325.121	-13.27	246.363	
329.986	-12.01	242.064	
326.924	-15.15	240.459	
323.897	-13.14	242.495	
327.843	-13.44	237.277	
323.176	-13.24	236.57	
321.302	-9.831	239.575	
323.303	-11.24	233.331	
318.813	-10.41	233.437	
319.075	-7.124	236.852	
319.139	-8.462	230.142	
316.374	-5.273	232.058	
318.912	-2.838	235.459	
316.352	-2.876	229.11	
315.073	0.7462	231.521	
319.216	1.224	234.165	
312.421	2.047	230.354	
312.428	3.536	225.963	
312.633	-0.5321	224.909	
310.151	5.476	227.533	
306.517	6.9	224.945	
305.852	6.966	219.811	
306.29	9.312	227.717	
303.052	7.2	229.965	
300.895	4.588	226.607	
305.725	4.862	231.394	
303.002	1.354	231.712	
302.26	0.2723	227.08	
306.262	-0.2704	232.695	
305.046	-4.237	231.083	
304.791	-3.041	226.246	
308.596	-5.494	231.775	
308.822	-6.755	227.165	
308.489	-3.083	224.952	
312.541	-8.087	226.698	
312.124	-7.866	222.024	
311.615	-3.297	220.129	
315.815	-8.968	221.727	
315.942	-5.802	218.348	
315.405	-1.537	221.006	
319.11	-7.613	217.301	
321.868	-5.061	219.21	
319.775	-4.953	223	
325.163	-4.87	217.188	
326.733	-9.016	218.447	
322.766	-10.24	219.726	
329.816	-8.839	216.778	
326.867	-7.412	213.928	
324.696	-11.13	214.968	
327.836	-4.389	213.242	
325.326	-1.153	212.924	
328.642	2.418	213.992	
321.564	-0.9846	212.867	
320.63	2.887	210.407	
324.908	3.432	207.826	
318.771	5.452	212.125	
315.561	2.614	210.103	
316.536	-1.795	208.985	
311.869	2.802	210.965	
310.653	2.621	214.586	
312.591	5.682	218.022	
307.054	2.368	214.508	
307.153	-2.143	214.692	
308.511	-2.4	219.415	
303.427	-2.434	214.741	
303.823	-5.914	217.598	
305.237	-3.26	220.709	
300.089	-6.03	217.089	
299.629	-6.785	221.508	
301.652	-3.148	222.456	
295.776	-6.359	221.119	
296.271	-3.154	224.726	
299.205	-0.03305	223.63	
292.707	-1.447	224.895	
294.51	1.987	227.335	
297.444	4.238	224.117	
290.932	3.32	227.236	
293.025	7.378	226.416	
294.757	5.991	222.703	
289.468	8.366	226.295	
290.409	11.26	222.809	
292.127	8.037	220.667	
286.753	11.23	222.222	
287.672	12.04	217.768	
289.426	7.683	216.58	
283.903	11.76	217.577	
284.907	9.747	213.461	
286.739	5.336	214.6	
281.231	8.949	212.754	
282.616	5.202	210.661	
284.158	1.848	214.07	
278.862	5.188	210.173	
279.371	0.7344	211.078	
280.835	0.3504	214.989	
275.878	-0.6259	210.046	
275.354	-2.714	214.105	
277.002	0.09529	216.841	
271.635	-2.943	213.582	
270.992	-1.693	217.902	
272.3	-5.482	219.139	
273.785	0.9452	217.655	
274.966	-0.995	221.706	
276.422	-5.513	220.532	
278.049	1.225	221.735	
279.979	-2.046	224.33	
279.915	-4.62	220.858	
282.984	0.1426	224.577	
285.247	-3.358	226.557	
281.683	-5.676	229.414	
287.849	-4.534	224.096	
286.018	-6.876	221.544	
282.92	-3.712	219.691	
289.482	-6.163	219.917	
287.693	-6.128	215.908	
285.48	-2.511	216.707	
291.172	-5.775	214.833	
289.447	-2.911	211.609	
287.913	-0.1803	214.557	
293.067	-2.279	210.958	
291.844	1.961	209.495	
290.444	3.052	213.299	
295.556	2.574	209.459	
294.496	6.929	210.52	
292.99	6.714	215.279	
298.286	7.741	210.69	
297.19	10.91	213.907	
295.995	7.882	217.506	
300.817	11.77	213.956	
300.004	13.49	218.164	
299.035	9.03	219.981	
303.448	14.93	217.973	
303.914	12.37	221.749	
302.394	7.929	219.875	
307.514	13.35	221.685	
309.89	10.27	223.269	
309.458	6.575	220.023	
312.548	12.05	224.994	
316.204	12.27	222.611	
317.187	15.65	225.305	
317.286	8.766	222.095	
317.159	6.121	224.909	
315.928	4.351	221.049	
318.354	4.3	227.957	
317.449	6.94	230.984	
321.309	4.827	232.921	
318.82	9.932	228.905	
321.663	11.11	232.002	
323.551	7.356	231.245	
322.497	13.99	229.612	
326.952	13.41	230.814	
327.214	9.238	229.845	
327.327	15.59	227.752	
331.407	13.29	227.49	
330.106	8.67	226.67	
332.566	14.36	223.927	
334.999	10.52	223.333	
331.711	6.795	222.802	
335.748	11.77	219.755	
336.137	7.546	218.234	
331.944	6.979	218.892	
337.071	9.574	215.18	
333.436	7.68	213.44	
330.452	9.444	216.424	
334.631	9.644	210.407	
330.579	11.34	209.509	
329.653	7.542	207.748	
330.219	11.98	213.122	
326.202	9.667	212.613	
327.822	5.242	210.994	
325.601	10.09	216.325	
323.897	6.377	217.181	
327.765	3.346	217.556	
320.546	6.895	218.694	
320.249	3.316	221.537	
318.552	0.1342	218.425	
324.032	3.471	222.138	
324.138	-0.7046	220.617	
321.995	1.02	217.244	
325.722	-3.648	222.428	
329.766	-2.253	220.928	
328.918	1.969	220.646	
330.643	-3.366	224.436	
333.839	-0.2728	225.199	
331.209	3.05	224.577	
333.394	-1.768	228.615	
334.674	2.219	230.446	
331.131	5.343	229.039	
333.705	0.9847	233.96	
333.054	5.087	235.459	
329.102	6.579	232.907	
331.626	3.038	238.302	
328.769	6.685	238.613	
326.712	5.184	235.297	
327.426	5.147	241.795	
323.254	7.019	241.017	
322.999	4.652	237.595	
321.925	4.914	243.902	
318.099	4.255	241.364	
320.291	1.762	238.748	
316.671	2.289	244.348	
314.457	-0.3987	241.47	
317.943	-1.993	239.681	
313.842	-2.318	244.631	
313.369	-6.086	241.993	
317.42	-5.843	240.911	
314.083	-8.57	244.673	
313.977	-12.04	242.092	
318.651	-11.36	241.944	
313.439	-13.66	245.458	
316.819	-16.64	244.199	
319.69	-13.65	245.005	
315.935	-18.86	247.205	
320.291	-17.86	248.223	
319.669	-13.06	248.845	
320.312	-19.82	251.596	
321.939	-15.95	253.222	
318.255	-12.99	252.381	
321.67	-17.58	256.743	
320.128	-13.3	257.719	
316.741	-14.32	255.591	
319.994	-14.06	261.531	
315.964	-11.92	261.884	
313.616	-13.91	258.716	
316.041	-13.54	265.342	
311.785	-14.48	265.073	
310.71	-16.82	260.774	
255.987	79.18	306.305	
257.097	75.62	307.457	
254.502	78.76	302.698	
251.178	77.26	305.456	
248.216	77.12	301.913	
252.183	73.66	305.866	
247.742	72.35	306.206	
247.261	73.17	302.161	
249.453	69.08	306.757	
246.413	67.41	303.575	
247.763	69.06	299.113	
247.827	63.86	303.434	
245.366	62.83	299.672	
248.159	65.35	296.737	
246.879	59.32	299.714	
247.473	59.81	295.161	
251.129	62.98	294.333	
248.994	56.38	294.489	
250.931	57.51	290.571	
254.226	60.75	292.367	
250.026	55.58	288.224	
250.966	51.08	288.698	
248.06	51.13	291.745	
250.91	51.62	285.36	
249.347	48.11	282.68	
248.753	43.08	283.84	
251.143	50.1	280.177	
247.459	52.03	278.487	
243.895	49.04	279.647	
247.643	54.54	281.414	
243.216	55.15	281.598	
241.717	50.85	283.239	
244.291	57.16	284.625	
240.452	56.32	286.767	
240.975	51.45	287.375	
242.007	58.03	289.878	
241.017	54.04	292.283	
243.337	50.92	290.388	
242.509	54.63	295.882	
242.177	50.08	296.921	
245.111	47.08	294.27	
243.867	50.81	300.322	
246.13	46.88	299.474	
249.029	48.18	295.585	
246.908	46.92	303.222	
250.733	48.7	302.932	
249.616	51.84	300.23	
252.989	47.35	305.767	
251.072	49.93	309.098	
247.558	50.65	306.672	
253.257	48.92	311.721	
252.204	45.29	309.663	
248.039	46.74	310.151	
254.976	44.05	308.588	
255.69	42.49	304.904	
260.526	43.23	304.593	
253.222	41.56	302.14	
255.372	38.15	299.849	
258.539	36.42	303.328	
256.043	38.73	296.348	
251.666	36.91	296.483	
249.001	37.09	300.28	
249.312	36.89	293.463	
248.598	40.18	291.632	
252.267	43.06	289.942	
245.903	39.38	289.235	
242.721	40.73	292.134	
243.662	45.56	291.759	
239.964	40.06	289.659	
237.814	43.75	291.243	
240.798	46.29	289.532	
235.148	42.51	288.818	
234.441	46.77	287.545	
238.564	47.22	286.392	
232.179	45.55	284.717	
235.007	48.25	281.888	
239.235	47.04	282.327	
233.854	47.28	278.232	
237.751	49.14	276.599	
241.215	46.15	278.225	
236.287	47.98	273.254	
240.572	46.59	272.363	
240.643	43.82	275.687	
238.953	45.56	269.316	
241.562	41.76	269.252	
240.289	40.86	273.212	
239.009	40.46	266.855	
240.02	36.2	268.389	
238.005	36.52	272.809	
237.234	35.35	265.943	
236.301	32.14	269.28	
234.314	34.64	272.964	
233.133	30.88	267.357	
231.238	30.13	271.373	
229.958	34.47	273.502	
228.643	28.89	268.877	
225.758	30.94	271.762	
226.677	35.06	271.833	
222.357	29.59	270.497	
220.688	33.9	270.186	
223.99	36.09	268.722	
217.937	32.69	267.845	
218.666	36.36	265.278	
216.848	38.73	268.227	
222.428	36	265.618	
222.039	40.61	266.431	
219.627	40.84	270.68	
225.772	40.69	267.223	
224.761	44.34	269.79	
222.654	41.68	272.462	
228.445	44.64	270.49	
227.512	47.84	273.686	
223.531	50.43	271.727	
228.275	46.29	277.023	
225.178	44.11	277.999	
225.362	40.98	274.421	
228.014	43.1	280.538	
226.628	38.88	280.509	
227.794	38.35	276.373	
229.173	38.52	283.055	
230.008	34.41	281.089	
231.082	36.18	277.327	
232.886	34.36	283.444	
235.12	31.7	280.361	
235.078	34.71	277.433	
238.019	32.25	282.553	
240.572	31.99	278.727	
239.596	36.19	276.309	
243.711	32.65	280.82	
245.486	34.72	277.066	
242.601	38.69	276.981	
248.576	35.3	279.067	
249.46	38.69	276.062	
245.628	41.33	277.631	
252.833	38.84	277.638	
251.483	43.18	278.423	
247.063	42.17	280.721	
254.643	43.63	280.354	
254.049	46.34	283.493	
250.874	44.08	286.527	
257.238	48.07	283.698	
259.734	46.48	286.859	
263.015	48.4	284.568	
257.868	47.09	289.999	
256.001	50.35	290.734	
253.689	46.87	292.198	
255.647	53.97	291.795	
257.097	56.02	288.507	
258.278	59.14	291.993	
260.081	53.54	288.21	
263.037	56.81	288.507	
261.58	57.4	292.509	
265.632	54.02	288.033	
268.276	56.14	291.187	
265.321	56.33	294.284	
269.988	52.79	291.031	
271.069	53.92	295.465	
266.721	54.04	297.692	
272.413	50.52	296.667	
271.274	51.38	301.058	
266.275	51.15	301.249	
272.526	47.82	301.928	
269.648	47.56	305.371	
266.402	47.48	302.536	
271.593	44.29	305.689	
267.633	42.37	304.841	
267.095	44.21	300.711	
269.761	39.3	305.399	
268.199	37.18	301.73	
264.741	36.32	304.056	
268.658	40.42	299.997	
264.218	39.69	298.781	
261.941	39.59	303.179	
264.267	43	296.893	
260.42	44.37	297.77	
260.838	46.25	302.302	
258.539	44.95	294.559	
255.916	48.52	295.769	
252.282	45.99	297.565	
258.539	49.75	298.095	
255.485	49.37	301.291	
255.167	45.33	299.771	
254.558	52.15	303.773	
258.228	51.23	306.184	
260.788	49.77	303.059	
258.151	54.97	306.404	
262.619	55.57	306.46	
263.27	53.68	302.698	
261.375	59.09	306.008	
265.264	60.15	303.816	
265.151	57.34	299.827	
263.864	63.55	302.811	
266.516	63.8	299.311	
264.804	60.27	296.356	
264.175	66.78	298.682	
264.925	65.59	294.255	
262.266	62.39	294.793	
262.973	68.66	293.237	
261.559	66.64	289.419	
259.473	63.98	291.788	
259.254	69.66	288.896	
256.065	66.66	287.418	
255.555	65.21	291.321	
253.717	69.62	286.654	
250.118	67.12	287.708	
251.27	66.51	291.788	
248.47	70.48	287.517	
245.288	68.83	290.416	
248.173	68.57	293.471	
244.058	72.11	291.646	
241.293	70.48	294.552	
244.984	71.12	297.508	
239.879	73.95	294.128	
239.978	74.19	298.837	
244.178	74.84	298.738	
237.878	77.41	298.675	
241.661	79.05	300.832	
244.779	78.32	297.147	
240.353	82.67	301.008	
244.341	83.63	299.142	
243.994	81.33	294.963	
243.153	87.28	298.915	
245.288	86.89	294.8	
242.128	84.39	293.718	
244.822	90.61	293.994	
243.648	89.63	289.652	
240.48	86.64	290.274	
242.665	93.29	289.645	
239.066	92.44	287.305	
236.499	88.76	289.447	
257.354	-51.65	258.551	
259.814	-52.26	261.465	
253.753	-51.91	260.031	
255.167	-47.75	261.304	
250.895	-46.62	262.747	
256.945	-48.58	264.476	
255.819	-44.49	266.308	
251.935	-45.79	266.657	
257.993	-45.88	269.085	
254.438	-44.58	271.932	
250.726	-47.7	271.26	
255.888	-46.01	275.149	
251.928	-45.48	277.412	
249.785	-49.19	275.312	
253.611	-46.93	280.538	
249.757	-49.41	281.139	
249.637	-52.98	277.723	
250.832	-51.21	284.306	
247.848	-54.61	283.896	
249.863	-56.69	279.901	
246.087	-54.89	286.506	
248.131	-55.64	290.543	
249.531	-51.71	290.133	
245.02	-57.03	290.826	
243.146	-56.92	295.104	
245.295	-56.01	299.743	
241.046	-59.55	293.527	
237.531	-56.91	292.657	
237.97	-53.3	295.754	
239.419	-55.73	289.497	
237.644	-51.66	289.574	
239.646	-49.71	293.513	
240.098	-51.25	286.696	
240.643	-46.89	287.566	
242.813	-47.23	292.042	
243.429	-46.86	284.922	
246.285	-45.06	288.287	
246.54	-48.07	291.427	
249.892	-44.81	286.661	
251.963	-44.2	290.812	
251.73	-48.08	293.874	
255.35	-44.21	288.98	
256.687	-46.73	292.594	
254.099	-50.97	291.929	
260.159	-45.78	291.526	
261.057	-49.31	289.355	
257.288	-49.36	287.184	
264.79	-50.14	289.581	
266.204	-46.9	286.612	
262.414	-44.76	287.008	
269.613	-47.72	286.597	
268.418	-47.78	290.762	
266.671	-43.78	289.822	
268.998	-50.79	291.738	
266.537	-53.07	294.057	
268.071	-57.56	292.664	
263.355	-52.08	295.967	
263.228	-55.12	299.488	
268.085	-56.5	299.863	
260.321	-57.23	299.707	
259.225	-53.31	302.076	
261.375	-49.26	301.341	
255.69	-52.51	303.207	
252.777	-52.55	300.605	
252.027	-56.52	297.678	
249.87	-51.21	302.38	
250.676	-47.03	300.867	
249.326	-47.91	296.136	
247.601	-45.65	302.529	
247.007	-42.93	298.88	
246.073	-46.3	296.419	
244.213	-41.62	301.107	
241.64	-41.43	297.459	
242.163	-45.62	296.653	
238.585	-40.65	299.665	
236.513	-44.35	297.353	
238.96	-48	297.734	
233.14	-44.94	299.311	
232.787	-49.09	297.402	
236.527	-51.6	299.318	
229.562	-49.27	299.495	
231.047	-53.58	300.414	
234.71	-52.24	302.267	
227.95	-53.45	302.38	
230.064	-55.94	305.64	
233.211	-53.09	305.746	
227.377	-54.74	307.903	
230.34	-55.11	311.445	
233.161	-51.34	310.321	
227.37	-53.7	313.284	
230.665	-51.48	315.645	
232.391	-48.02	312.647	
228.176	-49.51	317.852	
231.047	-46.09	317.809	
231.139	-43.88	313.333	
228.233	-44.88	320.058	
228.94	-40.97	317.795	
228.205	-41.63	313.722	
226.819	-38.49	319.916	
224.655	-37	316.14	
224.061	-40.53	313.906	
221.834	-35.6	318.255	
218.842	-37.24	315.306	
219.903	-34.24	312.548	
220.773	-40.51	314.931	
220.03	-39.66	310.441	
222.633	-35.62	309.536	
222.152	-42.66	309.593	
222.937	-40.53	305.555	
225.206	-37.56	307.811	
224.917	-43.52	304.565	
226.437	-41.19	300.923	
222.364	-38.39	299.481	
230.05	-40.46	301.411	
230.298	-37.34	303.709	
228.134	-39.14	307.57	
233.911	-38.8	303.632	
234.547	-37.68	307.945	
231.662	-40.57	309.274	
237.941	-38.89	307.238	
237.715	-40.6	311.565	
234.399	-43.15	310.639	
240.947	-42.16	310.597	
239.957	-45.59	313.567	
236.598	-46.76	311.41	
242.919	-47.25	312.018	
240.706	-51.22	312.817	
237.008	-51.26	309.585	
243.605	-53.1	311.191	
240.487	-56.26	309.925	
238.111	-53.62	306.503	
243.308	-58.16	308.376	
240.126	-60.17	305.76	
239.122	-55.96	303.37	
242.785	-62.51	304.657	
241.668	-60.82	300.542	
242.17	-55.89	301.595	
244.574	-62.81	299.191	
246.2	-60.83	295.868	
248.237	-56.73	297.791	
247.226	-63.55	293.711	
251.433	-64.48	294.029	
250.238	-68.37	292.254	
253.222	-61.42	292.947	
252.112	-59.3	289.956	
253.448	-56.69	293.287	
251.829	-58.41	286.279	
249.064	-61.1	284.943	
251.645	-60.53	280.948	
250.761	-63.99	286.923	
251.292	-66.43	283.281	
253.901	-63.33	281.945	
252.727	-69.04	285.664	
255.909	-69.97	282.482	
257.401	-65.98	281.98	
257.451	-71.68	285.466	
261.361	-70.68	283.111	
261.531	-65.81	283.083	
264.005	-71.49	285.841	
267.004	-68.5	284.116	
265.222	-63.93	285.049	
269.323	-69.35	287.17	
271.197	-65.27	286.993	
267.428	-63.6	288.217	
273.233	-66.98	289.765	
271.451	-63.85	292.396	
267.053	-65.1	291.703	
273.672	-65.62	294.842	
270.482	-65.88	298.031	
271.296	-61.78	298.774	
268.149	-66.93	295.274	
265.49	-63.49	296.942	
268.524	-59.55	296.313	
262.973	-64.27	294.227	
261.785	-60.39	293.294	
265.328	-58.73	290.317	
258.052	-60.1	293.775	
256.963	-57.08	290.479	
257.79	-53.1	293.046	
259.798	-58.41	288.351	
261.439	-54.28	288.408	
261.113	-54.77	292.693	
262.301	-52.25	285.282	
266.183	-54.55	284.936	
264.91	-58.24	286.774	
265.264	-54.28	281.33	
266.953	-58.25	280.064	
264.564	-60.53	282.737	
265.065	-57.22	277.003	
264.527	-61.66	275.985	
261.721	-63.35	279.64	
262.079	-60.72	273.201	
260.017	-64.61	273.425	
257.797	-64.48	277.766	
257.711	-62.71	271.064	
254.488	-65.35	273.155	
254.806	-62.82	276.514	
251.949	-63.96	270.744	
248.555	-64.38	273.855	
250.634	-61.58	276.161	
246.314	-62.45	271.43	
244.581	-60.32	275.142	
248.209	-58.22	275.616	
242.184	-58.47	272.873	
242.333	-54.85	275.552	
246.455	-54.11	274.966	
240.473	-53.34	272.604	
242.184	-49.26	274.004	
246.094	-50.53	273.063	
241.788	-47.52	270.723	
243.655	-43.82	271.967	
247.509	-45.83	270.094	
241.724	-42.64	268.948	
245.762	-40.65	267.597	
247.169	-44.45	266.332	
243.825	-38.74	264.868	
246.759	-41.14	262.216	
245.055	-45.57	263.355	
245.3	-39.78	258.868	
245.119	-44.18	257.776	
241.958	-45.74	261.078	
243.294	-43.08	254.51	
240.791	-46.82	255.598	
239.228	-44.52	258.716	
238.813	-46.62	252.343	
234.858	-47.51	254.459	
234.915	-44.47	257.656	
233.388	-46.52	251.122	
230.177	-44.34	253.059	
231.988	-41.18	256.482	
345.4	-41.18	17.32	
