319.3	12.17	-51.23	
318.5	8.328	-51.19	
316.3	13.85	-53.13	
314.6	13	-48.99	
310.8	15.55	-49.91	
313.4	9.47	-49.46	
309.9	10.15	-46.49	
308.1	12.62	-49.31	
309.4	6.533	-47.27	
304.9	7.734	-47.95	
304.6	10.21	-52.19	
303.7	4.298	-49.11	
299.6	5.959	-50.56	
301.5	7.985	-54.47	
298.6	2.435	-51.63	
297.1	4.382	-55.53	
300.9	5.706	-58.31	
295.8	1.145	-57.16	
295.8	2.798	-61.38	
300.7	3.333	-61.87	
292.9	2.502	-62.73	
291.2	-1.729	-63.16	
290.8	-1.644	-58.97	
289.8	0.03484	-65.7	
285.5	-1.145	-66.98	
282.7	-5.402	-65.95	
286.5	0.7263	-69.97	
284.4	4.536	-68.9	
281	3.147	-65.91	
287.4	5.358	-66.61	
285	7.667	-63.69	
282.3	4.184	-61.68	
288.3	7.661	-61.9	
286.4	7.775	-57.87	
284.2	3.347	-57.95	
289.9	7.31	-56.33	
288.1	3.524	-54.02	
286.9	0.718	-57.09	
291.2	1.967	-52.11	
288.9	-2.013	-51.31	
287.8	-4.684	-55.34	
292.1	-3.464	-49.66	
290.9	-7.313	-51.92	
291.6	-5.936	-56.71	
293.2	-9.034	-49.49	
296.6	-9.131	-52.01	
296.3	-5.004	-53.28	
298.7	-12.3	-51.26	
300.6	-10.7	-47.35	
297.5	-7.651	-47.01	
302.7	-13.45	-46.7	
298.8	-15.14	-47.83	
297.2	-12.36	-44.79	
299.5	-16.95	-50.45	
297.2	-17.07	-53.84	
300.7	-18.44	-57.06	
293.7	-15.68	-54.51	
292	-18.48	-57.8	
294.8	-22.6	-57.14	
291.1	-16.93	-60.93	
287.3	-16.63	-58.18	
287.5	-16.84	-53.53	
284.3	-14.47	-59.06	
284.7	-10.73	-59.9	
288	-9.322	-63.37	
281.4	-9.316	-60.13	
281.5	-7.971	-55.82	
284.7	-4.302	-56.47	
278.1	-6.373	-56.06	
279.6	-3.08	-53.32	
282.2	-1.644	-56.39	
275.9	-2.009	-53.61	
277.3	2.242	-53.96	
279.7	1.305	-57.4	
273.7	3.343	-54.82	
275.8	5.438	-58.67	
278.1	2.467	-61.01	
272.7	6.559	-60.84	
275.5	7.067	-64.47	
276.9	2.479	-65.49	
272.2	8.055	-66.22	
273.8	5.393	-69.65	
273.9	1.846	-67.22	
270.6	6.467	-71.07	
270.1	2.273	-72.92	
270.7	0.5625	-69.08	
266.6	3.228	-73.26	
265.5	-1.271	-72.89	
266.5	-1.842	-68.18	
262	0.1587	-73.1	
261.1	-3.312	-70.07	
263.1	-1.887	-65.83	
257.4	-2.262	-69.65	
257.7	-3.639	-65.37	
260.4	-0.3864	-62.71	
254.1	-2.567	-65.76	
254.8	-0.7878	-61.61	
257.8	2.162	-61.94	
251.2	0.0724	-60.54	
252.4	4.416	-59.55	
255.1	5.388	-62.65	
248.8	5.505	-59.72	
250.1	9.217	-62.01	
251.7	10.79	-58.47	
252.5	7.159	-64.1	
255.3	10.78	-63.01	
255.9	10.34	-58.18	
258.2	8.966	-64.72	
260.9	11.34	-61.91	
259.3	9.014	-58.63	
263.8	9.761	-63.65	
266.6	11.53	-60.42	
264.5	16.09	-59.35	
267.8	8.629	-58.36	
265.1	7.764	-55.77	
261.6	6.556	-58.83	
267.6	4.767	-55.6	
264.2	1.945	-54.96	
262.7	2.582	-58.94	
266.9	-0.4732	-54.57	
264.1	-3.368	-56.83	
264	-0.9227	-60.34	
267.1	-5.563	-56.78	
265.5	-7.483	-60.7	
265.8	-3.903	-62.82	
268.9	-9.176	-60.76	
268.5	-8.977	-65.35	
269.1	-4.172	-66.45	
272	-10.59	-65.64	
272.4	-8.173	-69.59	
272.9	-3.709	-67.67	
275.8	-9.812	-69.92	
276.9	-6.264	-72.67	
276.7	-3.083	-68.92	
279.9	-8.195	-73.53	
281.9	-4.376	-71.88	
279.6	-4.23	-67.37	
285.2	-6.129	-72.31	
287.9	-4.88	-69.37	
286	-6.569	-65.12	
291.1	-4.918	-71.11	
293.4	-8.538	-70.27	
295.5	-7.474	-74.01	
294.1	-8.475	-66.62	
295	-5.264	-64.74	
292.2	-7.682	-62.32	
297.4	-2.567	-63.53	
298	-0.2569	-66.89	
302.2	0.4504	-64.77	
298.3	-3.446	-69.1	
302.3	-2.167	-70.56	
303.6	-2.587	-66.51	
302.2	-5.36	-72.67	
306.6	-5.963	-71.76	
306.4	-5.792	-67.49	
305.7	-9.372	-73.11	
309.3	-10.63	-70.27	
307.6	-9.581	-65.81	
308.8	-14.49	-70.31	
310.7	-14.97	-66.14	
307.4	-13.11	-62.89	
309.8	-18.75	-66.41	
309.5	-19.08	-61.95	
306	-16.67	-62.13	
309	-22.7	-63.06	
304.9	-22.26	-61.34	
303.6	-18.9	-64.14	
304.9	-25.9	-62.37	
300.8	-25.54	-64.36	
299.2	-25.66	-60.42	
302.1	-22.37	-65.85	
298.2	-20.59	-64.07	
298.8	-21.47	-59.21	
299.2	-17.21	-65.42	
297.9	-14.79	-62.27	
301.5	-15.2	-58.91	
295.5	-12.27	-63.58	
296.4	-8.682	-60.84	
293.4	-9.888	-57.29	
300	-9.748	-60.59	
299.3	-10	-56.21	
296	-12.54	-57.39	
301.5	-8.248	-53.57	
304.6	-11.55	-54.01	
303.8	-12.58	-58.13	
306.8	-8.542	-53.62	
310.1	-9.985	-56.34	
307.6	-10.34	-59.76	
311.1	-6.412	-55.75	
313.2	-6.365	-59.83	
309.5	-7.012	-63.01	
313.7	-2.585	-59.59	
313.9	-2.124	-63.97	
309.3	-3.154	-65.37	
313.8	1.515	-62.86	
311.4	1.959	-66.84	
308.1	0.2719	-64.91	
311.4	5.671	-66.27	
307.4	6.172	-68.48	
305.7	3.926	-65.45	
307.4	9.808	-67.3	
302.9	9.303	-66.61	
303.6	6.786	-63.3	
302.7	12.99	-65.6	
299.4	12.08	-62.66	
301.8	9.538	-60.22	
300.2	15.61	-61.62	
298.5	14.5	-57.45	
301.8	11.87	-56.88	
300.2	17.23	-55.58	
298.9	15.93	-51.65	
303.1	13.75	-51.63	
299.8	19.52	-50.95	
302.3	17.87	-47.32	
305.3	16.64	-49.99	
302.7	21.45	-45.99	
307.1	20.35	-46.59	
306.9	19.85	-51.44	
308.4	23.8	-45.47	
310.8	23.55	-49.35	
307.1	23.48	-52.52	
311.9	27.16	-48.63	
311.1	27.51	-53.19	
307.1	27.25	-52.18	
312.5	31.09	-53.36	
309.1	32.45	-56.05	
305.6	31.14	-53.74	
310.6	35.86	-55.28	
306.6	37.61	-54.91	
303.8	34.91	-51.81	
303.7	47.46	59.58	
305.8	47.42	56.29	
300.2	48.83	58.62	
300.1	44.5	57.17	
295.5	44.75	56.36	
301.5	44.88	53.74	
299	41.39	52.11	
295.6	43.82	52.41	
301	42.2	49.09	
296.9	42.13	46.8	
294.4	46.19	48.02	
298.2	43.19	43.39	
294	43.95	41.72	
293.4	48.04	44.1	
295.6	44.96	38.38	
292.6	48.5	38.38	
294.1	51.8	41.73	
293.7	50.02	35.04	
292	54.13	35.86	
295.1	55.36	39.56	
290	55.04	33.6	
291.6	55.31	29.28	
291.8	51.12	29.45	
289.1	57.56	29.42	
286.6	58.19	25.5	
287.7	56.88	20.6	
285.7	61.25	27.32	
281.7	59.75	28.72	
280.6	56.3	25.6	
283.6	57.93	31.57	
280.7	54.59	31.82	
281.4	52.3	27.62	
283.3	53.34	34.25	
282.4	49.06	33.35	
283.8	48.94	28.64	
285.4	48.1	35.53	
287	45.66	31.79	
287.7	48.59	28.67	
290.6	44.3	32.93	
291.7	43.27	28.51	
292.3	47.16	25.48	
295.2	42.18	29.78	
296.7	44.34	25.99	
295.6	49.13	27.05	
299.9	42.35	26.52	
302.1	45.37	28.58	
298.8	46.45	31.27	
305.8	45.06	27.77	
306.6	41.43	30.55	
302.3	40.53	30.68	
310.1	41.2	30.04	
308.3	41.78	26.11	
305.7	38.43	27.25	
309.7	44.51	25	
307.7	47.52	23.09	
310.7	51.28	24.2	
304.2	47.59	21.63	
304.4	50.67	18.17	
309.4	50.57	17.14	
302.3	53.56	18.38	
299.7	50.24	16.23	
300.7	45.7	16.64	
296	50.59	15.67	
293.7	51.38	18.64	
294.6	55.27	21.61	
290.2	51.04	17.33	
290	46.76	18.74	
289.7	47.79	23.56	
286.4	46.42	17.55	
285.6	43.85	21.21	
286	47.24	23.78	
282.2	43.53	19.47	
280.2	43.97	23.48	
282.1	47.77	24.14	
276.8	44.23	21.75	
276.3	48.28	24.32	
279.7	51.04	23.54	
273	49.91	22.84	
274.2	53.91	24.81	
278.2	55.27	22.35	
271	55.11	23.15	
273.5	58.82	22.04	
276.3	56.54	19.69	
270.3	59.7	20.51	
272.6	61.58	16.97	
274.6	57.93	16.43	
269.3	61.33	15.19	
271.7	60.94	11.24	
273.4	56.45	11.9	
268.2	60.56	9.88001	
270.4	57.54	7.00601	
271.4	53.61	9.75301	
267	56.52	5.26901	
268.8	52.38	4.83901	
268.8	50.07	9.27701	
265.4	52.17	3.10101	
265.2	48.13	5.22701	
265.3	48.83	9.38501	
262.2	46.49	3.44701	
260.2	45.56	7.53301	
261	49.01	9.80301	
256.9	45.14	5.82701	
254.9	47.49	9.21601	
255.5	44.19	11.75	
257.8	50	9.23001	
257.5	49.24	13.85	
258.8	44.58	14.37	
260.5	51.43	14.33	
261.2	49	18.17	
262.1	45.59	15.67	
264.1	51.22	18.85	
265.3	48.41	22.31	
260.9	46.89	24.32	
268.5	46.65	21.24	
267.4	43.69	18.94	
265.4	46.21	15.44	
271.3	44	18.48	
270.9	42.93	14.18	
268.9	46.6	13.27	
274.6	43.04	14.34	
274.3	44.92	10.11	
272	48.3	11.51	
277.9	45.41	10.58	
277.6	49.09	7.77401	
275.1	51.12	10.41	
281.1	49.72	8.82701	
280.1	54.19	8.34001	
277.1	55.22	12.12	
283.7	55.06	9.50601	
281.8	58.96	11.26	
279.3	57	14.94	
285.3	59.86	12.33	
283.3	62.63	15.4	
281.4	58.8	17.88	
286.7	64.01	16.03	
285.7	62.57	20.3	
284.5	57.76	19.2	
289.2	63.56	21.24	
290.6	61.04	24.24	
291	56.61	22.09	
292.7	63.25	26.24	
296.9	62.89	25.26	
297.2	66.88	27.17	
297.9	59.39	26.08	
296.6	57.58	29.22	
296.6	54.83	25.76	
296.6	56.67	32.89	
294.9	60.01	34.67	
297.7	58.54	38.26	
297.1	62.35	32.44	
298.9	64.36	35.95	
300.6	60.57	36.87	
300.7	66.52	33.36	
304.4	66.33	36.05	
304.7	62.07	36.36	
305.9	67.63	32.87	
309.7	65.4	34.59	
308.4	60.71	34.61	
312	65.5	31.5	
314.2	61.68	32.75	
311	57.9	32.13	
316.2	61.93	29.43	
316.8	57.48	29.34	
312.6	57.05	28.65	
318.8	58.62	26.3	
315.8	56.28	23.98	
312.2	58.74	25.26	
318.1	57.39	21.18	
314.7	58.72	18.52	
314.2	54.59	17.65	
313.2	60.3	21.56	
309.5	57.87	20.32	
311.2	53.2	20.55	
307.7	59.26	23.38	
305.5	55.89	24.52	
308.8	53.12	26.94	
301.9	56.72	24.55	
300.4	54.04	28	
299.6	50.11	25.4	
303.8	54.39	29.72	
304	49.97	29.46	
303.3	50.7	25.26	
304.7	47.64	32.41	
309.1	48.66	32.11	
308.8	52.64	30.5	
308.7	48.52	35.83	
311.7	51.75	36.8	
309.7	54.76	34.55	
310	51.22	40.13	
310.9	55.58	41.26	
308.3	58.16	37.98	
308.7	55.3	44.38	
307.9	59.64	44.43	
305.2	60.35	40.45	
305.5	58.42	47.12	
303	61.97	45.48	
302.1	59.6	42.15	
300.5	61.3	48.23	
297	62.84	45.66	
297.8	59.65	43.14	
294.7	61.57	48.39	
291.9	60.2	44.98	
294.6	57.13	43.97	
289.4	59.06	47.62	
288	55.67	44.96	
291.8	53.71	44.93	
286.3	54.66	48.12	
286.4	50.32	46.56	
290.6	50.33	46.91	
286	48.65	49.85	
286.5	44.61	48.35	
291	45.3	49.63	
284.8	43.94	51.61	
288.1	40.79	52.4	
290.8	43.94	53.39	
286.1	39.43	55.39	
290	40.75	57.58	
289.5	45.53	56.69	
288.7	39.74	61.08	
290	43.94	62.16	
287	46.5	59.35	
288.4	43.3	65.63	
287	47.67	64.95	
284.4	46.05	62.07	
285.5	47.94	68.49	
281.8	50.03	66.92	
280.5	47.24	63.76	
280.6	49.39	70.45	
276.6	48.36	69.04	
276.9	44.95	65.42	
319.4	-65.69	35.49	
318.6	-63.72	32.2	
316.5	-64.95	37.94	
314.7	-68.05	35.07	
311	-68.61	37.77	
313.4	-65.81	32.32	
310	-68.71	31.39	
308.2	-67.6	34.98	
309.5	-66.15	28.72	
304.9	-66.22	30.14	
304.7	-63.9	34.47	
303.7	-63.44	27.83	
299.7	-63.09	30.04	
301.5	-60.8	33.8	
298.7	-60.34	27.61	
297.1	-58.04	31.32	
301	-56.35	33.87	
295.8	-54.96	29.43	
295.8	-52.23	33.05	
300.7	-52.07	33.71	
293	-50.93	33.53	
291.2	-48.36	30.16	
290.8	-51.98	28.05	
289.8	-47.12	33.01	
285.5	-45.43	32.72	
282.7	-44.09	28.58	
286.6	-43.85	35.87	
284.5	-46.76	38.58	
281	-48.6	35.87	
287.5	-49.13	38.05	
285.1	-52.85	38.51	
282.3	-52.75	34.52	
288.4	-54.36	37.54	
286.5	-57.86	35.55	
284.2	-55.48	31.84	
290	-58.91	34.31	
288.2	-58.91	29.9	
286.9	-54.83	29.12	
291.2	-59.71	27.54	
288.8	-58.32	23.75	
287.7	-53.49	23.59	
292	-58.95	21.62	
290.8	-55.02	19.53	
291.5	-51.66	23.2	
293.1	-56.19	16.77	
296.5	-53.97	17.97	
296.3	-55.05	22.15	
298.5	-52.95	14.86	
300.4	-57.11	14.16	
297.4	-59	16.61	
302.5	-56.22	11.46	
298.7	-54.39	10.65	
297	-58.44	11.43	
299.3	-51.21	10.46	
297	-48.26	12.16	
300.5	-44.78	12.64	
293.5	-48.43	13.72	
291.8	-44.16	13.08	
294.5	-42.56	9.19201	
290.9	-42.32	16.04	
287.1	-44.83	14.9	
287.3	-48.68	12.29	
284.1	-45.22	17.24	
284.6	-46.46	20.85	
287.9	-44.22	23.84	
281.3	-47.01	22.22	
281.4	-51.39	21.11	
284.6	-52.74	24.54	
278	-52.03	22.63	
279.5	-56.09	23.99	
282.2	-54.21	26.79	
275.9	-56.42	25.09	
277.3	-58.33	28.88	
279.7	-54.9	29.86	
273.8	-58.19	30.31	
275.8	-56	34.08	
278.1	-52.43	32.75	
272.8	-54.74	36.21	
275.6	-51.91	38.51	
276.9	-48.63	35.12	
272.3	-50.94	40.3	
273.9	-46.62	39.81	
273.9	-46.83	35.51	
270.7	-45.98	41.5	
270.2	-42.21	38.89	
270.7	-44.59	35.43	
266.6	-42.43	39.93	
265.5	-40.4	35.91	
266.5	-44.12	32.95	
262.1	-40.99	37.27	
261.1	-41.75	32.74	
263.1	-46.11	31.71	
257.4	-42.68	33.45	
257.7	-45.61	30.03	
260.4	-49.57	31.39	
254.1	-45.85	31.19	
254.8	-50.31	30.53	
257.8	-51.56	33.19	
251.2	-51.68	30.74	
252.5	-54.8	33.91	
255.1	-52.65	36.34	
248.8	-55.24	34.97	
250.2	-55.22	39.32	
251.8	-59.06	38.79	
252.6	-52.35	38.63	
255.5	-55.16	41.11	
256.1	-59.05	38.21	
258.3	-52.74	40.44	
261	-56.38	40.96	
259.4	-57.96	37.28	
263.9	-54.05	40.5	
266.7	-57.72	40.28	
264.7	-61.03	43.64	
267.9	-57.96	36.72	
265.1	-59.72	34.66	
261.7	-56.5	35.26	
267.6	-58.29	31.99	
264.2	-57.38	29.29	
262.7	-54.32	31.92	
266.9	-56.43	26.99	
264	-53.01	25.73	
264	-51.29	29.66	
267	-51.89	23.81	
265.4	-47.55	24.24	
265.8	-47.61	28.39	
268.8	-46.59	22.79	
268.4	-42.79	25.37	
269	-44.37	30.03	
271.9	-41.68	24.11	
272.4	-39.58	28.23	
272.8	-43.55	31.03	
275.7	-38.43	26.97	
276.8	-37.94	31.42	
276.6	-42.79	32.17	
279.9	-36.19	30.19	
281.9	-39.58	32.56	
279.6	-43.51	30.36	
285.2	-38.28	31.26	
287.9	-41.43	30.76	
286	-44.18	27.12	
291.1	-39.92	31.6	
293.3	-38.73	28.06	
295.5	-36.09	30.9	
294	-41.87	26.2	
295	-45.15	27.94	
292.2	-45.96	24.64	
297.4	-47.58	29.58	
298	-45.92	33.3	
302.2	-48.09	32.75	
298.3	-42.37	31.74	
302.3	-41.78	33.55	
303.6	-45.01	31.06	
302.1	-38.31	31.93	
306.6	-38.75	30.9	
306.3	-42.49	28.81	
305.7	-35.82	28.71	
309.2	-37.58	26.11	
307.5	-41.93	24.69	
308.7	-35.52	22.84	
310.5	-38.82	20.24	
307.2	-42.58	20.16	
309.6	-36.62	17.17	
309.3	-40.25	14.56	
305.8	-41.37	16.75	
308.8	-37.41	12.05	
304.7	-39.13	11.58	
303.4	-38.5	15.92	
304.6	-36.34	9.00801	
300.6	-34.86	10.4	
298.9	-38.15	8.25601	
301.9	-35.23	13.87	
298	-37.69	14.49	
298.6	-41.37	11.2	
299.1	-38.31	18.07	
297.8	-42.26	18.51	
301.3	-44.9	16.36	
295.4	-42.47	21.36	
296.3	-46.68	22.97	
293.3	-49.09	20.12	
299.9	-46.32	21.9	
299.2	-49.93	19.4	
295.9	-47.6	17.88	
301.4	-53.08	19.49	
304.4	-50.97	16.88	
303.7	-46.92	18.16	
306.7	-52.87	19.21	
310	-49.79	19.37	
307.5	-46.69	20.88	
311	-52.15	22.1	
313.1	-48.69	24.25	
309.4	-45.65	25.4	
313.7	-50.87	27.34	
313.8	-47.37	30.02	
309.3	-45.66	29.92	
313.8	-50.23	32.54	
311.4	-47.07	35.03	
308.1	-47.85	32.61	
311.5	-49.5	37.89	
307.5	-47.9	39.51	
305.8	-49.31	36.03	
307.5	-50.8	42	
303	-51.14	41.26	
303.7	-52.64	37.37	
302.9	-53.93	43.87	
299.5	-55.98	41.59	
301.9	-56.71	38.13	
300.3	-58.7	44.05	
298.7	-61.68	40.94	
301.9	-60.79	38.37	
300.4	-64.7	42.27	
299.1	-67.37	39.12	
303.2	-66.24	37.21	
300	-69.85	41.81	
302.4	-72.07	38.48	
305.5	-69.14	38.79	
302.9	-75.07	40.83	
307.3	-73.97	40.16	
307.1	-69.57	42.28	
308.7	-76.72	42.5	
311	-73.27	44.29	
307.3	-70.55	45.93	
312.2	-75.77	46.98	
311.4	-72.07	49.67	
307.3	-72.81	48.97	
312.8	-73.79	52.79	
309.4	-72.22	55.4	
305.9	-73.52	53.11	
310.9	-74.65	57.89	
307	-75.9	59.22	
304.1	-77.14	55.33	
411	-10.85	-61.28	
409	-9.886	-64.51	
408.9	-9.552	-58.26	
406.8	-13.37	-59.52	
404.1	-13.27	-55.69	
404.5	-12.01	-62.17	
401.2	-15.15	-61.14	
400.5	-13.14	-57.56	
399.6	-13.44	-64.04	
395.8	-13.24	-61.24	
396.6	-9.831	-57.79	
393.6	-11.24	-63.62	
390.5	-10.41	-60.37	
393.1	-7.124	-58.14	
388.4	-8.462	-62.93	
387.8	-5.273	-59.62	
392	-2.838	-59.01	
385.7	-2.876	-61.69	
386.5	0.7462	-59.08	
391.3	1.224	-60.14	
383.8	2.047	-58.03	
380.7	3.536	-61.14	
380.1	-0.5321	-62.03	
380.2	5.476	-58.42	
375.8	6.9	-57.68	
371.7	6.966	-60.84	
377.6	9.312	-55.56	
376.9	7.2	-51.68	
373	4.588	-52.53	
379.8	4.862	-52.56	
378.1	1.354	-50.41	
374.3	0.2723	-53.16	
381.1	-0.2704	-52.02	
379.1	-4.237	-52.3	
375.5	-3.041	-55.54	
382.1	-5.494	-54.32	
379	-6.755	-57.74	
377.2	-3.083	-59.07	
381.3	-8.087	-60.7	
377.7	-7.866	-63.71	
376	-3.297	-64.69	
380.1	-8.968	-66.53	
377.8	-5.802	-69.01	
379.3	-1.537	-66.75	
379.3	-7.613	-71.99	
382.6	-5.061	-72.59	
383.8	-4.953	-68.43	
383.5	-4.87	-76.35	
385.5	-9.016	-76.57	
383.6	-10.24	-72.86	
386.5	-8.839	-79.93	
382.4	-7.412	-79.86	
381.6	-11.13	-77.59	
382.6	-4.389	-81.03	
380.6	-1.153	-79.48	
383.7	2.418	-81.07	
377.9	-0.9846	-76.86	
375.5	2.887	-77.94	
376.7	3.432	-82.79	
375.4	5.452	-75.41	
371.7	2.614	-74.57	
371.6	-1.795	-76.05	
369.7	2.802	-71.35	
371.4	2.621	-67.93	
375.2	5.682	-66.87	
368.8	2.368	-65.44	
369	-2.143	-65.38	
373.3	-2.4	-63	
366.4	-2.434	-62.71	
368.7	-5.914	-60.97	
371.9	-3.26	-59.77	
365.7	-6.03	-58.69	
368.5	-6.785	-55.24	
370.6	-3.148	-56	
365.5	-6.359	-52.79	
368.4	-3.154	-50.59	
369.7	-0.03305	-53.44	
366	-1.447	-47.95	
369	1.987	-47.5	
368.8	4.238	-51.85	
366.4	3.32	-45.04	
367.3	7.378	-47.1	
365.9	5.991	-50.95	
364.7	8.366	-44.67	
362.9	11.26	-47.8	
362.6	8.037	-50.53	
359.9	11.23	-45.63	
357.4	12.04	-49.43	
357.8	7.683	-51.51	
354.6	11.76	-46.9	
352.4	9.747	-50.52	
354.5	5.336	-51.01	
349.3	8.949	-48.42	
348.8	5.202	-50.88	
352.3	1.848	-49.56	
345.8	5.188	-48.57	
346.8	0.7344	-48.29	
350.6	0.3504	-46.56	
343.6	-0.6259	-46.55	
346.1	-2.714	-43.31	
349.2	0.09529	-42.54	
343.1	-2.943	-41.05	
345.7	-1.693	-37.54	
347.5	-5.482	-37.59	
347.5	0.9452	-39.69	
351.2	-0.995	-37.66	
351.4	-5.513	-39.52	
353.4	1.225	-39.82	
356.6	-2.046	-39.35	
354.1	-4.62	-41.76	
358.9	0.1426	-41.3	
361.9	-3.358	-41.5	
361.4	-5.676	-36.96	
362	-4.534	-45.08	
358.9	-6.876	-45.59	
355.4	-3.712	-44.71	
360.2	-6.163	-49.19	
356.1	-6.128	-50.76	
355.1	-2.511	-48.63	
357.8	-5.775	-53.98	
354.3	-2.911	-55.04	
355.3	-0.1803	-51.87	
356.4	-2.279	-58.06	
354.5	1.961	-58.23	
356.2	3.052	-54.55	
357.1	2.574	-60.88	
357.1	6.929	-59.38	
359.4	6.714	-54.95	
359.9	7.741	-61.94	
361.4	10.91	-58.89	
363.1	7.882	-55.5	
364	11.77	-61.42	
366.4	13.49	-57.87	
367	9.03	-55.9	
368.7	14.93	-60.44	
371.7	12.37	-58.1	
369.3	7.929	-58.35	
374.2	13.35	-60.69	
377	10.27	-61.25	
374.4	6.575	-63.24	
380.1	12.05	-61.91	
381	12.27	-66.18	
383.6	15.65	-64.97	
381.4	8.766	-67.31	
383.3	6.121	-65.23	
379.7	4.351	-67.09	
386.3	4.3	-63.92	
387.8	6.94	-61.14	
391.9	4.827	-62.5	
387.3	9.932	-63.58	
391.5	11.11	-63.4	
392.3	7.356	-65.27	
390.4	13.99	-65.68	
394.4	13.41	-67.98	
393.9	9.238	-68.85	
392.5	15.59	-70.41	
395.2	13.29	-73.48	
393.7	8.67	-73.14	
393.5	14.36	-76.82	
394.8	10.52	-78.96	
392.1	6.795	-77.01	
392.8	11.77	-82.02	
392	7.546	-83.37	
389.5	6.979	-79.94	
390.5	9.574	-86.19	
386.7	7.68	-84.85	
386.7	9.444	-80.63	
385.4	9.644	-87.84	
381.9	11.34	-85.61	
380	7.542	-86.2	
384.2	11.98	-82.8	
381	9.667	-80.32	
381	5.242	-82.61	
383.2	10.09	-77.27	
382.6	6.377	-75.46	
385.6	3.346	-77.93	
381.3	6.895	-72.02	
383.1	3.316	-69.8	
379.7	0.1342	-70.8	
386.2	3.471	-72.05	
385.2	-0.7046	-73.2	
381.3	1.02	-74.07	
387.6	-3.648	-73.04	
389.4	-2.253	-76.96	
388.6	1.969	-76.56	
392.5	-3.366	-75.1	
395.3	-0.2728	-76.82	
393	3.05	-75.4	
397.4	-1.768	-74.09	
399.6	2.219	-73.7	
396.1	5.343	-72.19	
401.4	0.9847	-70.53	
402	5.087	-69.01	
397.4	6.579	-68.02	
403	3.038	-65.99	
401.2	6.685	-63.75	
397.4	5.184	-64.64	
402.5	5.147	-60.55	
399	7.019	-58.15	
396.4	4.652	-60.39	
400.1	4.914	-55.17	
395.6	4.255	-54.26	
395.3	1.762	-57.66	
396.7	2.289	-51.14	
393.1	-0.3987	-51.61	
394.3	-1.993	-55.34	
394.9	-2.318	-48.94	
392.7	-6.086	-50.47	
394.8	-5.843	-54.1	
395.1	-8.57	-49.08	
393.2	-12.04	-50.83	
396.4	-11.36	-54.24	
395.2	-13.66	-48.07	
396.7	-16.64	-51.35	
399.3	-13.65	-52.81	
398.2	-18.86	-48.6	
402	-17.86	-50.96	
402	-13.06	-50.08	
404.4	-19.82	-48.59	
406.7	-15.95	-48.59	
403.5	-12.99	-46.58	
409	-17.58	-45.91	
408.6	-13.3	-44.13	
404.7	-14.32	-43.24	
411.2	-14.06	-41.34	
408.6	-11.92	-38.24	
404.7	-13.91	-38.82	
411.1	-13.54	-35.85	
407.9	-14.48	-33.03	
404.1	-16.82	-35.31	
397.6	79.18	35.58	
399.2	75.62	35.61	
394	78.76	34.08	
393.6	77.26	38.38	
389	77.12	37.97	
394.6	73.66	37.96	
391.7	72.35	41.34	
388.5	73.17	38.82	
393.3	69.08	40.52	
388.9	67.41	40.42	
386.7	69.06	36.31	
389.8	63.86	39.32	
385.4	62.83	38.4	
385.3	65.35	34.35	
386.5	59.32	37.36	
383.7	59.81	33.72	
385.7	62.98	30.55	
384.3	56.38	32.17	
382.9	57.51	28.03	
386.5	60.75	26.97	
380.6	55.58	27.01	
381.6	51.08	26.68	
381.7	51.13	30.89	
379.2	51.62	24.36	
376.2	48.11	23.57	
376.6	43.08	24.81	
375.7	50.1	20.53	
371.9	52.03	21.94	
370.2	49.04	25.28	
374.1	54.54	23.88	
371.1	55.15	27.14	
371.2	50.85	29.36	
374	57.16	28.52	
372.8	56.32	32.75	
373.6	51.45	32.81	
376.1	58.03	33.85	
377.1	54.04	36.25	
377.4	50.92	33.27	
380.7	54.63	37.74	
381.2	50.08	38.71	
381.4	47.08	34.76	
384.8	50.81	39.92	
385.8	46.88	37.72	
385.1	48.18	32.92	
389	46.92	39.82	
391.5	48.7	36.91	
388.8	51.84	35.79	
395.1	47.35	37.32	
396.1	49.93	41.03	
391.9	50.65	41.8	
399.5	48.92	41.34	
397.3	45.29	40.63	
394.7	46.74	43.92	
398.5	44.05	37.91	
396.4	42.49	34.8	
399.6	43.23	31.16	
392.7	41.56	34.59	
392.6	38.15	31.45	
397.3	36.42	31.67	
390.6	38.73	28.5	
387.6	36.91	31.69	
388.4	37.09	36.26	
383.8	36.89	31.22	
382	40.18	30.43	
383.4	43.06	26.64	
378.4	39.38	30.64	
378.2	40.73	34.94	
378.6	45.56	34.01	
374.5	40.06	35.14	
374.1	43.75	37.78	
375	46.29	34.46	
370.5	42.51	37.95	
369.1	46.77	37.55	
371.2	47.22	33.82	
365.5	45.55	37.15	
365.5	48.25	33.15	
368.8	47.04	30.47	
362.1	47.28	31.38	
363.7	49.14	27.47	
367.3	46.15	26.17	
360.3	47.98	26.14	
362.7	46.59	22.48	
365.1	43.82	24.78	
359.4	45.56	21.47	
361.2	41.76	19.58	
363.1	40.86	23.28	
357.7	40.46	19.69	
359.5	36.2	20.06	
361.2	36.52	24.61	
355.8	35.35	20.3	
357.5	32.14	23.32	
358.7	34.64	27.33	
353.9	30.88	24.2	
355.4	30.13	28.38	
356	34.47	30.79	
351.8	28.89	28.45	
351.8	30.94	32.53	
352.5	35.06	31.93	
348.5	29.59	34.04	
347.1	33.9	35	
348.4	36.09	31.63	
343.5	32.69	35.29	
342.2	36.36	32.96	
343	38.73	36.33	
345.1	36	30.54	
345.4	40.61	31.39	
346.7	40.84	36.1	
348.6	40.69	29.31	
349.7	44.34	31.84	
350.1	41.68	35.22	
352.8	44.64	29.73	
354.4	47.84	32.65	
350.2	50.43	34.08	
357.3	46.29	34.47	
355.8	44.11	37.35	
353.4	40.98	34.69	
359.6	43.1	37.14	
358.6	38.88	38.1	
356.5	38.35	34.35	
362.2	38.52	38.1	
361.4	34.41	36.12	
359.5	36.18	32.7	
365.1	34.36	35.75	
364.5	31.7	31.99	
362.4	34.71	29.95	
368.1	32.25	31.49	
367.2	31.99	26.98	
364.8	36.19	25.96	
370.9	32.65	26.24	
369.5	34.72	22.33	
367.4	38.69	24.31	
373.1	35.3	21.56	
371.6	38.69	18.81	
370	41.33	22.63	
375.1	38.84	17.54	
374.7	43.18	19.05	
373.2	42.17	23.8	
378.3	43.63	18.18	
380.1	46.34	20.82	
380	44.08	25.21	
382.5	48.07	18.71	
386.5	46.48	19.18	
387.2	48.4	15.24	
387.4	47.09	22.72	
386.6	50.35	24.56	
386	46.87	27.23	
387.1	53.97	25.56	
385.8	56.02	22.21	
389.1	59.14	23.84	
387.7	53.54	19.89	
390	56.81	18.01	
391.8	57.4	21.87	
391.5	54.02	15.84	
395.6	56.14	16.2	
395.7	56.33	20.48	
396.7	52.79	14.88	
400.6	53.92	17.25	
399.1	54.04	21.9	
402.4	50.52	17.15	
404.7	51.38	21.06	
401.3	51.15	24.73	
406.2	47.82	20.79	
406.6	47.56	25.26	
402.3	47.48	25.55	
408.2	44.29	24.11	
404.8	42.37	26.31	
401.5	44.21	23.77	
406.7	39.3	25.2	
403	37.18	23.71	
402.2	36.32	27.8	
402.1	40.42	22.16	
398.1	39.69	24.44	
399.6	39.59	29.16	
396.8	43	23.07	
394.7	44.37	26.41	
398.2	46.25	29.32	
391.1	44.95	25.47	
390.1	48.52	28.18	
388.8	45.99	32.02	
393.6	49.75	27.97	
393.7	49.37	32.39	
392.4	45.33	31.54	
394.8	52.15	34.8	
399.1	51.23	33.91	
398.7	49.77	29.89	
399.2	54.97	34.12	
402.4	55.57	31	
400.2	53.68	27.88	
401.2	59.09	31.56	
402.4	60.15	27.26	
399.5	57.34	24.52	
400.7	63.55	27.54	
400.1	63.8	23.19	
396.8	60.27	22.31	
398	66.78	24.4	
395.4	65.59	20.74	
393.9	62.39	23	
393.3	68.66	21.4	
389.6	66.64	19.7	
389.8	63.98	22.85	
387.6	69.66	20.96	
384.3	66.66	22.17	
386.7	65.21	25.29	
382.1	69.62	23.29	
380.3	67.12	26.58	
384	66.51	28.65	
379	70.48	27.61	
378.8	68.83	31.91	
383	68.57	32.03	
378.8	72.11	33.65	
378.9	70.48	37.66	
383.6	71.12	37.14	
377.6	73.95	38.36	
381	74.19	41.62	
383.9	74.84	38.58	
379.4	77.41	42.99	
383.6	79.05	41.84	
383.2	78.32	37.03	
382.8	82.67	42.89	
384.3	83.63	38.75	
381.1	81.33	36.04	
383.3	87.28	39.43	
381.9	86.89	35.01	
378.9	84.39	36.48	
381	90.61	34.77	
377.1	89.63	32.53	
375.3	86.64	35.21	
376.4	93.29	33.22	
372.2	92.44	34.11	
371.9	88.76	37.44	
364.8	-51.65	0.84671	
368.6	-52.26	1.16801	
363.3	-51.91	4.43901	
365.2	-47.75	4.34001	
363.2	-46.62	8.38101	
368.7	-48.58	5.32501	
369.2	-44.49	7.41701	
366.7	-45.79	10.41	
372.7	-45.88	7.84301	
372.2	-44.58	12.37	
369.1	-47.7	14.52	
375.5	-46.01	13.62	
374.3	-45.48	18.02	
371.3	-49.19	18.05	
377.7	-46.93	19.04	
375.4	-49.41	22.19	
372.9	-52.98	19.86	
378.4	-51.21	23.67	
376	-54.61	25.49	
374.6	-56.69	21.24	
376.6	-54.89	28.58	
380.9	-55.64	29.99	
381.6	-51.71	28.71	
378.9	-57.03	32.39	
380.6	-56.92	36.74	
385.4	-56.01	38.5	
378	-59.55	37.11	
374.9	-56.91	38.98	
377.4	-53.3	40.86	
374	-55.73	35.41	
372.8	-51.66	36.72	
377	-49.71	38.09	
372.5	-51.25	32.95	
373.5	-46.89	33.18	
378.2	-47.23	34.81	
373.6	-46.86	29.34	
378	-45.06	29.7	
380.4	-48.07	31.74	
379.4	-44.81	26	
383.8	-44.2	27.47	
385.8	-48.08	29.8	
384.9	-44.21	23.78	
388.4	-46.73	25.39	
386.1	-50.97	26.75	
390.1	-45.78	22.18	
389.2	-49.31	20.01	
385	-49.36	21.14	
392	-50.14	17.53	
390.9	-46.9	14.43	
388.5	-44.76	17.39	
393.3	-47.72	12.01	
395.4	-47.78	15.8	
393.5	-43.78	16.37	
396.5	-50.79	16.08	
396.4	-53.07	19.46	
396.5	-57.56	17.39	
395.5	-52.08	23.06	
397.9	-55.12	25.64	
401.6	-56.5	22.47	
396	-57.23	27.85	
396.9	-53.31	30.3	
397.9	-49.26	28.26	
395.2	-52.51	33.6	
391.3	-52.55	33.82	
388.7	-56.52	32.28	
390.5	-51.21	37.13	
390	-47.03	35.49	
385.7	-47.91	33.1	
389	-45.65	38.84	
386	-42.93	36.68	
383.6	-46.3	35.6	
385.6	-41.62	40.23	
381.2	-41.43	39.47	
381	-45.62	38.53	
380.6	-40.65	43.19	
377.5	-44.35	43.02	
379.5	-48	41.56	
376.5	-44.94	46.79	
374.9	-49.09	45.69	
378.9	-51.6	44.4	
374.1	-49.27	49.45	
375.8	-53.58	49.05	
379.7	-52.24	47.77	
375	-53.45	52.63	
378.8	-55.94	53.44	
381.1	-53.09	51.29	
378.5	-54.74	56.94	
383.1	-55.11	57.35	
384.3	-51.34	54.56	
382.3	-53.7	60.75	
386.3	-51.48	60.09	
385.4	-48.02	56.75	
386.1	-49.51	63.41	
388.1	-46.09	61.35	
385	-43.88	58.12	
387.7	-44.88	64.93	
386.6	-40.97	62.83	
383.2	-41.63	60.47	
386.6	-38.49	65.83	
382.4	-37	64.69	
380.4	-40.53	63.53	
381.9	-35.6	68.18	
377.7	-37.24	68.21	
376.5	-34.24	65.51	
378.8	-40.51	66.58	
375.1	-39.66	63.93	
376.3	-35.62	61.45	
376	-42.66	61.83	
373.7	-40.53	58.42	
376.9	-37.56	58.41	
374.4	-43.52	56.32	
372.9	-41.19	52.67	
369	-38.39	54.53	
375.8	-40.46	50.46	
377.6	-37.34	51.91	
378.8	-39.14	56.17	
380.1	-38.8	49.3	
383.6	-37.68	51.9	
382.5	-40.57	54.88	
385.5	-38.89	49	
388.4	-40.6	52.22	
385.4	-43.15	53.91	
390	-42.16	49.25	
391.4	-45.59	52.05	
387.5	-46.76	52.9	
392.4	-47.25	48.86	
391.4	-51.22	50.99	
386.5	-51.26	51.32	
392.3	-53.1	47.79	
389.2	-56.26	49.1	
385.1	-53.62	48.36	
390.1	-58.16	46.01	
386	-60.17	46.41	
383.6	-55.96	45.43	
387.1	-62.51	43.75	
383.4	-60.82	41.63	
384.5	-55.89	42.02	
384.5	-62.81	38.62	
383.3	-60.83	35.12	
386.1	-56.73	35.04	
382.5	-63.55	32.87	
385.7	-64.48	30.12	
383.6	-68.37	29.71	
386.2	-61.42	28.09	
383.3	-59.3	26.76	
386.6	-56.69	28.17	
380.5	-58.41	24.36	
377.6	-61.1	25.37	
376.6	-60.53	20.72	
380.2	-63.99	25.57	
378	-66.43	22.62	
378.9	-63.33	19.83	
380.7	-69.04	23.29	
380.7	-69.97	18.79	
381.4	-65.98	17.38	
383.9	-71.68	19.81	
385	-70.68	15.38	
385.1	-65.81	15.24	
388.8	-71.49	15.44	
389.7	-68.5	12.1	
389.1	-63.93	14.02	
393.5	-69.35	12.62	
394.7	-65.27	11.17	
392.9	-63.6	14.7	
398.1	-66.98	11.69	
398.7	-63.85	14.81	
395.1	-65.1	17.43	
402	-65.62	14.97	
402	-65.88	19.48	
403.1	-61.78	19.43	
398.4	-66.93	19.18	
397.7	-63.49	22.24	
399.4	-59.55	19.65	
394	-64.27	22.1	
392.5	-60.39	22.28	
392.9	-58.73	17.67	
390.2	-60.1	25.26	
387.1	-57.08	23.7	
389.5	-53.1	24.93	
387.6	-58.41	20.19	
388.8	-54.28	19.07	
391.6	-54.77	22.33	
387.2	-52.25	16.25	
389.7	-54.55	13.26	
390.1	-58.24	15.46	
386.5	-54.28	11.36	
386.8	-58.25	9.27101	
387	-60.53	12.85	
383.3	-57.22	8.44101	
382.2	-61.66	8.10201	
382.8	-63.35	12.67	
378.5	-60.72	7.86401	
377.2	-64.61	9.48101	
378.7	-64.48	14.12	
373.9	-62.71	9.44201	
373.1	-65.35	13.2	
375.7	-62.82	15.35	
369.6	-63.96	13.29	
369.4	-64.38	17.89	
372.5	-61.58	18.05	
366.1	-62.45	17.76	
367.5	-60.32	21.61	
370.4	-58.22	19.38	
364.2	-58.47	21.7	
366.2	-54.85	23.49	
368.7	-54.11	20.16	
362.8	-53.34	22.72	
365	-49.26	22.5	
367.1	-50.53	19.07	
362.4	-47.52	20.46	
364.6	-43.82	20.02	
366	-45.83	15.97	
361.1	-42.64	19.25	
363	-40.65	15.44	
363.1	-44.45	13.55	
359.7	-38.74	14.88	
359.9	-41.14	10.93	
359.5	-45.57	12.94	
356.5	-39.78	9.59401	
355.6	-44.18	8.95001	
355.7	-45.74	13.52	
352	-43.08	7.93101	
351	-46.82	10.47	
352.1	-44.52	13.78	
347.3	-46.62	9.56701	
346	-47.51	13.86	
348.3	-44.47	16.08	
342.6	-46.52	12.54	
341.7	-44.34	16.18	
345.4	-41.18	17.32	
17.32	-41.18	-345.4	
