-141.542	220.817	189.554	
-137.917	222.224	189.017	
-142.608	219.304	186.089	
-139.807	216.152	187.815	
-140.997	213.114	184.477	
-136.492	217.47	186.634	
-134.793	213.168	186.259	
-137.293	212.558	182.992	
-131.76	215.148	185.354	
-131.449	212.209	181.691	
-134.986	213.383	178.481	
-128.459	213.902	180.022	
-128.961	211.449	176.098	
-132.77	213.994	174.677	
-125.934	213.254	174.634	
-128.468	213.75	170.816	
-131.941	217.117	171.537	
-125.782	215.57	168.744	
-128.705	217.328	165.76	
-131.074	220.361	168.878	
-127.901	216.527	162.755	
-123.788	217.865	161.249	
-122.239	215.012	163.929	
-125.718	217.681	158.463	
-123.629	216.422	154.517	
-118.588	216.205	153.265	
-126.66	217.929	153.11	
-128.839	214.083	152.382	
-125.377	210.865	152.092	
-129.802	214.107	156.122	
-129.92	209.695	156.49	
-125.239	208.552	156.002	
-130.449	210.622	160.089	
-128.451	206.934	161.595	
-123.867	207.85	159.983	
-128.741	208.367	165.159	
-124.01	207.743	165.52	
-122.241	210.291	162.5	
-123.082	209.25	169.062	
-118.539	209.342	168.002	
-117.262	212.471	164.374	
-117.83	211.016	171.431	
-114.872	213.59	168.984	
-118.005	216.263	166.092	
-113.336	214.371	172.329	
-115.345	218.045	172.951	
-119.262	216.575	171.841	
-113.077	220.456	174.967	
-113.752	218.425	179.075	
-115.177	214.794	177.123	
-111.884	220.688	181.019	
-109.441	219.837	177.463	
-110.208	215.605	178.481	
-109.047	222.775	176.105	
-109.328	223.502	172.082	
-110.518	228.302	172.279	
-109.532	221.074	169.133	
-107.669	223.448	165.604	
-104.857	226.818	168.051	
-109.8	224.038	162.755	
-107.744	219.877	162.012	
-105.988	217.257	165.442	
-108.865	217.499	159.269	
-112.542	216.389	158.958	
-116.155	219.83	158.837	
-112.681	213.802	156.462	
-112.358	210.551	159.58	
-116.896	211.074	161.383	
-112.624	207.817	157.006	
-115.038	205.411	160.004	
-118.286	208.165	159.672	
-114.76	202.787	157.183	
-119.06	201.733	157.925	
-120.313	205.778	157.19	
-119.044	199.505	154.772	
-122.962	202.101	153.534	
-122.03	206.428	153.506	
-123.604	200.971	149.808	
-126.318	204.655	149.221	
-123.2	208.431	149.489	
-126.625	203.212	145.65	
-126.098	207.623	144.356	
-122.203	207.969	146.145	
-126.399	205.996	141.089	
-123.244	208.919	139.427	
-120.618	207.791	142.567	
-122.954	206.507	136.712	
-118.538	207.856	136.196	
-116.732	205.87	140.233	
-118.613	205.127	133.572	
-114.218	204.455	135.079	
-114.66	202.371	139.491	
-113.671	201.407	132.759	
-111.071	199.659	135.998	
-113.902	198.057	139.788	
-110.864	197.157	133.176	
-111.186	194.155	136.606	
-114.918	194.719	138.494	
-110.279	190.865	134.817	
-114.115	188.822	136.366	
-117.008	191.887	136.083	
-113.846	186.177	133.7	
-118.33	186.519	133	
-119.006	184.545	136.634	
-118.135	190.298	133.219	
-121.875	189.534	135.97	
-119.999	187.164	139.809	
-121.934	193.264	136.811	
-123.951	192.01	140.707	
-120.212	190.185	141.895	
-124.224	195.641	141.527	
-125.604	194.493	145.791	
-128.433	190.272	145.063	
-122.788	195.417	148.096	
-120.168	192.61	148.019	
-118.967	192.945	143.38	
-118.397	195.535	149.907	
-114.525	194.472	147.955	
-115.953	195.672	144.08	
-113.247	197.096	150.14	
-110.549	198.213	146.562	
-113.872	199.078	144.009	
-109.691	201.117	148.719	
-108.849	203.497	144.815	
-112.805	203.189	143.529	
-108.606	206.463	147.177	
-110.259	208.929	143.649	
-115.022	207.568	143.295	
-110.203	212.056	145.919	
-113.834	213.512	143.408	
-117.198	210.41	145.12	
-113.733	216.615	145.579	
-118.167	217.199	144.412	
-119.525	213.19	146.923	
-117.859	220.528	145.926	
-121.29	218.833	148.507	
-119.009	214.59	150.069	
-121.091	221.994	150.536	
-122.088	221.222	154.524	
-118.451	218.301	156.186	
-123.801	224.266	155.556	
-121.183	226.97	157.777	
-124.169	230.015	156.617	
-120.194	225.132	160.853	
-122.629	222.927	162.818	
-118.689	220.939	162.55	
-125.385	222.307	165.371	
-128.786	223.577	163.419	
-130.134	224.497	167.888	
-126.911	226.709	162.069	
-129.949	229.413	163.865	
-128.613	227.939	167.648	
-127.895	232.24	162.302	
-128.606	234.679	166.057	
-127.174	231.856	168.935	
-125.813	236.659	164.466	
-124.992	237.753	169.02	
-123.723	233.456	170.971	
-121.487	239.402	168.638	
-120.269	238.251	172.93	
-119.564	233.31	172.895	
-116.772	239.756	172.103	
-114.804	237.006	175.044	
-115.717	233.768	172.442	
-111.884	239.189	173.906	
-110.208	235.405	172.223	
-113.648	234.644	169.324	
-107.419	237.856	171.495	
-106.985	236.384	167.188	
-104.923	233.051	168.843	
-110.717	236.507	167.054	
-110.25	232.139	165.555	
-107.982	229.97	169.416	
-114.008	231.888	165.307	
-114.531	227.953	166.616	
-114.261	228.305	171.537	
-116.328	226.026	163.992	
-118.785	223.105	166.566	
-115.424	219.697	166.955	
-119.046	225.689	169.288	
-117.032	222.705	171.891	
-114.082	222.676	168.723	
-118.393	221.559	175.313	
-116.785	225.378	177.194	
-117.067	227.926	173.715	
-120.03	224.982	179.025	
-120.909	229.39	179.435	
-120.927	230.131	175.249	
-124.148	227.855	180.56	
-126.374	231.616	179.16	
-125.63	231.621	174.295	
-129.739	229.885	179.683	
-131.758	232.459	176.727	
-129.734	231.015	172.485	
-134.481	229.899	177.441	
-135.425	230.644	172.93	
-132.114	228.285	171.961	
-138.438	228.439	173.333	
-138.239	227.093	168.942	
-134.621	225.319	169.882	
-140.97	224.552	169.776	
-138.698	221.626	167.082	
-135.596	221.286	169.918	
-141.463	219.042	167.655	
-138.469	215.676	167.4	
-136.254	216.922	170.823	
-141.441	213.764	168.702	
-138.405	210.724	170.448	
-137.092	213.711	173.185	
-140.709	209.255	172.972	
-137.734	206.702	174.832	
-137.324	210.352	177.816	
-140.914	205.03	175.964	
-139.085	205.163	180.298	
-140.025	209.25	180.531	
-141.857	202.803	181.521	
-142.672	206.415	184.208	
-143.883	209.513	180.638	
-145.723	204.8	185.92	
-147.727	208.771	184.873	
-147.479	208.481	180.015	
-150.988	207.199	186.16	
-152.62	209.326	182.37	
-150.624	206.388	180.256	
-156.276	208.498	183.24	
-157.203	207.383	178.933	
-154.014	204.48	178.092	
-160.414	206.125	180.539	
-160.384	202.574	177.972	
-155.96	200.311	178.184	
-127.411	125.762	256.878	
-129.282	129.083	256.036	
-127.699	123.522	253.724	
-124.427	126.514	252.628	
-123.303	124.068	248.803	
-126.464	129.281	251.193	
-123.134	130.494	248.272	
-123.93	127.013	246.08	
-125.61	133.163	247.551	
-124.909	132.089	243.033	
-127.11	127.781	242.128	
-127.493	134.444	241.541	
-127.256	132.514	237.39	
-129.745	128.644	238.649	
-129.877	135.034	236.16	
-131.883	131.427	234.038	
-134.086	128.644	237.468	
-134.769	133.386	232.454	
-137.437	129.788	231.832	
-138.29	128.806	236.64	
-138.317	129.492	228.82	
-140.644	132.983	226.896	
-137.026	135.096	227.158	
-141.659	130.241	225.228	
-142.707	130.795	220.688	
-143.694	135.125	218.001	
-144.395	127.6	221.339	
-141.187	125.043	219.5	
-138.913	128.005	216.516	
-139.275	125.371	222.859	
-135.269	125.112	220.985	
-135.018	129.258	218.51	
-134.246	125.841	224.542	
-130.54	127.981	223.269	
-132.596	131.783	220.928	
-129.998	128.964	226.932	
-129.773	133.454	225.419	
-133.661	134.328	223.707	
-129.465	135.64	228.77	
-130.525	139.535	226.423	
-135.177	139.813	224.704	
-130.369	141.446	229.796	
-134.11	143.605	228.176	
-137.495	139.888	228.148	
-133.331	146.235	230.814	
-135.995	144.811	233.826	
-134.813	140.603	233.395	
-137.322	147.728	235.87	
-133.478	148.33	238.401	
-131.132	146.068	235.452	
-134.696	150.901	240.515	
-135.952	151.915	236.464	
-131.728	151.3	235.431	
-139.203	152.087	236.669	
-141.778	150.527	233.904	
-145.703	149.805	236.81	
-141.118	149.243	230.397	
-145.079	149.944	228.091	
-147.124	153.687	230.899	
-146.765	147.085	226.755	
-143.731	148.469	223.396	
-140.008	151.101	224.393	
-142.924	146.371	220.384	
-141.745	142.749	220.858	
-144.382	139.537	223.594	
-140.676	141.578	217.457	
-136.4	142.732	218.312	
-135.482	139.082	221.508	
-135.254	141.426	214.925	
-131.451	139.98	216.947	
-133.62	136.956	219.048	
-130.587	139.124	213.313	
-128.843	135.223	214.734	
-132.573	134.083	216.544	
-128.478	134.071	211.107	
-130.9	130.166	212.57	
-134.768	131.345	214.423	
-131.668	128.236	209.19	
-134.86	125.765	211.432	
-138.322	129.04	212.521	
-135.355	124.222	207.995	
-139.844	124.577	208.978	
-139.69	128.871	209.297	
-140.016	123.115	205.634	
-143.709	125.751	204.757	
-141.446	129.131	205.789	
-142.955	124.945	201.165	
-144.862	129.029	200.069	
-141.341	131.91	201.738	
-143.776	127.908	196.632	
-142.955	132.525	196.156	
-138.934	133.42	198.805	
-141.484	132.017	192.523	
-138.687	135.452	193.492	
-135.117	133.89	196.63	
-137.917	134.54	189.859	
-133.596	135.135	191.221	
-132.768	132.3	194.232	
-131.745	135.208	187.841	
-128.787	131.946	189.316	
-131.255	129.321	191.487	
-127.86	131.18	185.776	
-127.99	126.705	186.758	
-124.448	127.171	188.974	
-131.184	127.217	188.819	
-128.786	124.585	191.873	
-125.026	127.392	193.16	
-131.574	125.033	194.334	
-128.359	124.325	197.544	
-126.608	128.112	196.413	
-131.067	124.574	200.076	
-127.834	124.595	203.371	
-124.252	121.43	201.681	
-127.82	128.09	204.877	
-125.681	130.305	202.473	
-128.393	129.964	198.584	
-127.49	132.82	204.905	
-127.943	135.743	201.582	
-130.736	133.241	199.524	
-129.29	137.856	204.311	
-132.307	139.323	201.108	
-133.926	135.367	200.472	
-133.838	140.994	203.986	
-137.911	140.689	201.79	
-137.853	136.529	201.886	
-139.322	141.872	205.009	
-143.012	139.323	203.958	
-141.506	134.656	204.509	
-144.626	140.379	207.328	
-146.711	136.191	207.225	
-142.829	133.387	208.059	
-148.35	137.229	210.456	
-148.956	132.74	211.213	
-144.091	131.972	211.623	
-151.131	133.746	214.062	
-148.02	131.239	216.375	
-143.819	133.582	214.748	
-149.783	132.311	219.514	
-147.035	132.592	222.626	
-144.1	136.368	221.388	
-148.984	131.548	225.525	
-150.504	134.9	227.802	
-153.39	131.919	229.364	
-147.536	136.76	229.088	
-144.399	134.946	230.39	
-143.241	138.44	227.943	
-142.313	133.154	232.985	
-143.975	129.353	233.041	
-142.423	129.604	237.56	
-147.568	130.895	233.02	
-148.704	128.843	236.775	
-145.698	131.216	238.627	
-152.127	130.452	236.216	
-152.32	131.165	240.735	
-148.627	133.289	241.166	
-155.1	133.381	239.547	
-153.904	135.77	243.45	
-149.376	137.306	242.545	
-155.896	139.02	242.891	
-152.924	141.512	245.331	
-148.738	141.822	242.63	
-155.021	144.645	244.397	
-151.412	147.293	244.758	
-149.798	145.358	241.3	
-154.181	149.809	244.023	
-151.914	150.563	240.261	
-152.319	146.344	238.62	
-154.678	153.131	239.907	
-155.568	152.012	235.622	
-152.123	154.304	234.653	
-155.332	148.442	236.711	
-152.357	148.151	233.218	
-148.833	151.386	234.583	
-151.843	144.48	234.109	
-147.744	144.119	233.359	
-145.656	146.043	237.404	
-147.179	141.481	230.835	
-143.108	139.79	232.214	
-140.341	142.858	229.81	
-144.005	140.644	235.834	
-140.34	143.136	235.792	
-142.209	144.914	232.327	
-137.526	142.923	238.373	
-140.072	145.291	241.272	
-143.981	144.103	239.921	
-138.494	142.838	243.62	
-142.009	142.466	246.427	
-144.704	141.114	243.422	
-139.771	139.651	247.579	
-143.466	137.33	249.015	
-145.941	136.457	244.857	
-141.342	134.212	249.665	
-144.8	131.522	249.135	
-145.868	131.951	244.411	
-141.944	129.015	249.34	
-144.715	126.713	246.413	
-143.521	129.386	243.422	
-142.278	123.833	246.589	
-143.283	122.494	242.297	
-141.694	126.122	241.081	
-140.405	120.048	242.601	
-139.434	121.107	238.21	
-138.087	124.914	239.405	
-136.63	118.529	238.309	
-134.139	120.996	235.438	
-133.796	124.321	238.104	
-131.546	118.525	236.471	
-128.375	121.711	235.438	
-129.744	124.064	238.656	
-125.624	120.287	237.482	
-122.832	123.531	236.775	
-124.568	125.158	240.862	
-120.498	120.829	237.878	
-118.658	123.941	240.77	
-121.99	123.413	243.379	
-115.716	121.565	241.47	
-117.463	121.953	245.776	
-121.741	119.801	244.793	
-114.892	119.518	247.332	
-118.607	117.553	249.015	
-120.757	116.157	244.906	
-116.26	114.768	250.337	
-119.79	112.142	248.866	
-118.486	113.124	244.991	
-118.242	108.921	250.309	
-119.299	106.572	246.582	
-117.54	109.106	243.429	
-117.072	103.995	248.23	
-115.265	102.924	244.404	
-113.697	107.03	242.057	
-43.4881	206.704	250.945	
-46.0745	207.243	248.053	
-42.2375	203.057	250.627	
-39.9311	205.263	247.325	
-37.1834	201.624	246.618	
-42.3836	205.031	244.461	
-38.9989	204.968	241.399	
-38.0545	201.112	242.665	
-41.9831	205.017	239.158	
-39.7941	201.365	236.909	
-40.2017	197.431	239.829	
-42.5941	200.655	234.427	
-40.7017	196.677	233.161	
-41.9919	194.332	237.093	
-43.5888	196.178	230.736	
-43.7033	191.776	232.228	
-45.6442	191.758	236.789	
-46.5793	190.598	229.972	
-47.6636	187.016	232.532	
-49.3013	189.532	236.464	
-47.6298	184.357	230.892	
-50.4106	184.034	227.236	
-47.8801	186.891	225.461	
-49.9819	180.811	228.261	
-50.0277	177.511	225.016	
-51.6619	177.661	220.108	
-50.6712	175.465	228.021	
-46.4505	173.975	228.452	
-44.5777	174.411	224.061	
-45.6461	177.321	230.199	
-41.4133	177.43	228.827	
-41.9206	178.109	224.026	
-41.6153	180.8	230.474	
-38.616	182.605	227.724	
-41.1756	182.278	223.474	
-39.3825	186.033	229.322	
-40.3053	187.631	224.931	
-43.6548	185.272	223.46	
-41.5075	191.313	225.383	
-43.2027	191.469	221.006	
-47.0533	188.479	220.115	
-44.5416	195.048	221.763	
-48.2597	193.628	219.436	
-50.1195	190.13	222.527	
-49.0354	197.312	219.111	
-51.7358	197.549	222.364	
-49.252	195.407	225.178	
-54.4258	200.168	221.579	
-51.7424	203.84	222.428	
-48.1787	201.448	222.039	
-54.2102	206.335	222.003	
-54.7379	203.589	218.743	
-50.3537	204.095	218.093	
-57.7712	202.483	219.033	
-58.9118	198.558	218.609	
-62.9933	198.668	221.423	
-56.9755	195.545	217.237	
-60.2987	192.76	215.583	
-64.0136	195.995	214.743	
-60.5275	189.477	217.039	
-57.4133	189.103	213.546	
-55.0726	192.749	211.842	
-55.1876	186.028	213.08	
-53.0142	184.743	215.986	
-55.0637	183.813	220.433	
-50.8868	182.158	214.621	
-47.5214	185.089	213.907	
-46.2709	185.624	218.595	
-45.2276	182.397	212.578	
-41.7611	184.512	214.6	
-43.3538	183.511	218.489	
-39.8136	181.799	212.832	
-37.3145	181.291	216.502	
-40.787	180.445	218.892	
-35.6927	178.202	215.038	
-36.9635	176.023	219.118	
-41.3386	176.461	219.804	
-36.241	172.251	218.503	
-38.8686	171.142	222.109	
-43.3673	172.374	220.631	
-37.909	167.54	221.042	
-42.3892	166.66	221.826	
-43.7276	169.398	218.786	
-41.2146	163.346	220.759	
-45.2255	162.753	218.56	
-44.5644	166.368	216.467	
-43.3945	160.021	216.749	
-46.1849	160.795	213.129	
-44.3633	165.08	211.743	
-43.991	158.175	211.687	
-44.5809	160.716	207.776	
-41.8763	164.752	208.462	
-42.2163	158.481	205.662	
-40.9941	162.224	203.456	
-38.0384	165.024	206.327	
-39.1033	159.429	201.73	
-35.7217	162.492	201.759	
-34.7594	163.325	205.761	
-33.1882	160.844	199.362	
-29.825	161.258	202.522	
-31.7471	160.288	206.079	
-27.7611	158.564	200.656	
-26.7354	156.747	204.722	
-24.1629	159.971	205.478	
-30.3134	157.204	205.931	
-28.0283	158.867	209.735	
-25.8969	162.955	208.109	
-31.351	159.781	211.241	
-28.9694	162.936	213.518	
-28.3364	165	209.784	
-32.1751	163.829	215.243	
-30.0646	167.513	217.068	
-25.303	165.886	218.029	
-31.5396	170.548	215.399	
-29.7538	170.975	211.962	
-31.1282	166.916	209.982	
-32.8201	173.426	211.842	
-33.3607	172.542	207.529	
-34.5505	168.483	208.328	
-35.9512	175.129	207.812	
-38.3332	172.415	204.87	
-38.4333	169.148	207.649	
-41.0426	174.868	205.634	
-44.0834	171.455	204.806	
-42.7056	169.188	208.024	
-46.6295	173.945	206.185	
-48.8668	170.22	207.727	
-46.0631	168.524	211.446	
-51.511	172.58	209.311	
-52.0498	169.313	212.578	
-47.7632	169.828	214.84	
-54.658	171.53	214.02	
-53.8979	169.234	217.944	
-49.3618	171.077	218.333	
-56.9444	171.011	219.267	
-53.8777	172.479	222.357	
-50.4389	174.383	219.175	
-56.6299	174.646	223.771	
-55.0333	178.18	225.327	
-53.2669	180.621	221.409	
-57.1754	178.871	228.183	
-60.2353	181.791	227.236	
-62.2954	180.079	230.8	
-58.4211	184.928	226.416	
-55.3189	186.115	228.353	
-54.7942	186.826	224.04	
-53.4832	187.796	231.21	
-53.8177	185.055	234.264	
-53.6178	189.049	236.845	
-57.5497	184.419	233.374	
-58.8349	185.465	237.482	
-57.3776	189.401	236.64	
-62.3421	184.6	236.195	
-63.9162	188.206	238.649	
-61.3101	191.172	236.959	
-66.9097	187.531	236.464	
-67.5422	192.147	237.1	
-63.676	194.15	234.894	
-70.3055	192.813	234.434	
-69.0033	197.157	233.868	
-64.6086	197.065	231.478	
-71.6758	197.386	231.061	
-69.3488	200.616	229.004	
-66.3671	197.691	228.077	
-72.5189	200.427	226.875	
-69.746	199.064	223.644	
-68.2975	195.295	225.793	
-73.0362	199.182	221.754	
-72.4115	195.14	219.91	
-69.7193	197.057	217.192	
-71.3239	193.997	223.283	
-67.5954	192.459	220.964	
-65.7838	196.681	219.062	
-66.1817	191.25	224.273	
-62.1457	192.159	223.665	
-61.857	196.939	224.62	
-60.1077	189.05	223.983	
-56.2107	190.72	225.758	
-54.0705	191.833	221.621	
-58.1735	193.4	227.547	
-55.6836	196.307	225.284	
-57.0721	194.052	221.876	
-53.7016	199.174	226.903	
-57.5123	201.554	227.179	
-60.3197	198.317	227.589	
-55.8563	202.486	230.453	
-59.6338	202.869	232.9	
-60.9007	198.863	232.2	
-56.9783	202.989	235.537	
-59.9571	201.229	238.542	
-60.8751	196.739	236.739	
-57.1888	200.794	241.152	
-59.3077	197.464	243.117	
-59.233	193.915	239.865	
-55.94	197.351	244.899	
-56.9477	192.776	244.963	
-55.9611	192.627	240.918	
-53.8675	192.301	247.056	
-53.2661	188.06	245.373	
-52.6744	189.855	241.71	
-49.8743	187.985	247.134	
-48.2505	185.852	243.429	
-48.5743	189.413	241.173	
-44.8762	185.588	245.203	
-42.7048	185.927	241.187	
-44.1445	189.88	240.438	
-39.7624	186.27	243.492	
-37.7155	188.685	240.162	
-40.5262	191.774	240.607	
-35.2309	190.422	242.304	
-33.5727	192.89	239.158	
-36.6761	196.005	240.706	
-30.7921	193.033	241.696	
-30.8954	197.652	241.039	
-34.4192	197.896	243.45	
-27.6432	198.019	243.054	
-30.3883	200.574	245.691	
-33.3786	196.953	247.049	
-27.6744	201.374	248.336	
-30.8425	199.961	251.228	
-31.3101	195.331	249.771	
-28.1507	200.298	253.979	
-30.1211	196.311	255.315	
-28.2781	194.599	251.921	
-28.0234	196.118	258.511	
-27.2582	191.653	257.953	
-25.7046	191.562	253.858	
-24.8037	192.261	260.774	
-21.8721	189.684	258.957	
-21.1483	190.91	254.155	
-157.58	294.636	247.289	
-158.85	294.907	243.591	
-156.894	290.852	247.94	
-153.29	292.247	245.564	
-151.068	288.198	246.363	
-154.592	291.781	242.064	
-150.342	290.699	240.459	
-150.569	287.073	242.495	
-152.282	290.64	237.277	
-150.122	286.499	236.57	
-152.137	283.171	239.575	
-151.918	285.609	233.331	
-150.391	281.305	233.437	
-153.368	279.889	236.852	
-152.241	280.613	230.142	
-153.62	276.624	232.058	
-156.998	277.605	235.459	
-155.686	275.407	229.11	
-158.183	272.488	231.521	
-160.668	275.837	234.165	
-157.983	269.541	230.354	
-159.276	268.803	225.963	
-155.856	271.014	224.909	
-159.818	265.861	227.533	
-159.234	262.001	224.945	
-158.959	261.393	219.811	
-161.21	260.599	227.717	
-157.761	258.851	229.965	
-154.421	258.289	226.607	
-157.073	262.334	231.394	
-152.674	261.731	231.712	
-151.366	261.629	227.08	
-152.897	265.366	232.695	
-148.854	266.296	231.083	
-149.762	265.478	226.246	
-149.54	269.999	231.775	
-148.561	270.825	227.165	
-151.575	268.701	224.952	
-149.267	274.712	226.698	
-149.25	274.24	222.024	
-152.952	271.515	220.129	
-150.141	277.988	221.727	
-152.946	276.515	218.348	
-156.371	273.917	221.006	
-152.962	280.164	217.301	
-156.551	281.276	219.21	
-155.598	279.41	223	
-158.364	284.034	217.188	
-155.558	287.467	218.447	
-152.515	284.644	219.726	
-157.253	290.048	216.778	
-157.015	286.781	213.928	
-152.709	286.76	214.968	
-160.117	286.109	213.242	
-161.664	282.317	212.924	
-166.415	283.403	213.992	
-159.929	278.975	212.867	
-162.815	276.231	210.407	
-165.426	279.663	207.826	
-164.107	273.338	212.125	
-160.044	271.976	210.103	
-156.714	275.026	208.985	
-158.361	268.686	210.965	
-157.596	267.723	214.586	
-161.216	267.87	218.022	
-155.578	264.733	214.508	
-151.721	267.074	214.692	
-152.177	268.378	219.415	
-149.605	263.992	214.741	
-146.79	266.075	217.598	
-149.795	265.973	220.709	
-144.822	262.9	217.089	
-143.939	262.879	221.508	
-148.1	262.812	222.456	
-142.381	259.329	221.119	
-145.404	258.155	224.726	
-149.574	259.136	223.63	
-145.1	254.215	224.895	
-148.976	254.06	227.335	
-152.392	255.475	224.117	
-148.341	250.295	227.236	
-152.902	250.078	226.416	
-152.567	252.272	222.703	
-151.979	246.504	226.295	
-154.956	245.871	222.809	
-153.024	248.971	220.667	
-153.102	242.72	222.222	
-154.263	243.111	217.768	
-151.367	246.809	216.58	
-152.136	239.988	217.577	
-150.895	241.864	213.461	
-147.991	245.655	214.6	
-148.365	239.078	212.754	
-145.813	242.152	210.661	
-143.679	245.164	214.07	
-143.924	238.907	210.173	
-140.321	241.575	211.078	
-140.721	243.035	214.989	
-137.397	239.23	210.046	
-135.327	239.821	214.105	
-138.584	239.843	216.841	
-133.269	236.714	213.582	
-134.03	235.532	217.902	
-131.402	238.56	219.139	
-137.711	236.632	217.655	
-136.621	238.625	221.706	
-133.437	242.145	220.532	
-140.085	240.185	221.735	
-138.218	243.492	224.33	
-135.957	244.724	220.858	
-141.616	245	224.577	
-139.715	248.71	226.557	
-135.926	246.783	229.414	
-139.998	251.552	224.096	
-137.054	251.137	221.544	
-138.246	246.872	219.691	
-139.404	253.781	219.917	
-138.54	252.214	215.908	
-140.566	248.489	216.707	
-140.585	255.05	214.833	
-142.203	252.124	211.609	
-143.8	249.43	214.557	
-144.56	254.943	210.958	
-147.62	251.764	209.495	
-147.865	250.006	213.299	
-150.007	254.672	209.459	
-153.249	251.576	210.52	
-152.309	250.38	215.279	
-155.847	254.453	210.69	
-158.043	251.919	213.907	
-154.823	252.398	217.506	
-160.602	254.63	213.956	
-161.685	253.066	218.164	
-157.338	254.457	219.981	
-164.654	255.329	217.973	
-162.67	257.013	221.749	
-158.064	257.917	219.875	
-165.318	259.64	221.685	
-163.839	263.237	223.269	
-160.423	264.711	220.023	
-166.71	264.65	224.994	
-168.728	267.706	222.611	
-172.147	266.867	225.305	
-166.235	270.395	222.095	
-163.88	271.607	224.909	
-161.732	271.426	221.049	
-162.901	273.552	227.957	
-164.734	271.448	230.984	
-164.835	275.849	232.921	
-168.012	271.14	228.905	
-170.453	273.013	232.002	
-168.146	276.525	231.245	
-173.364	272.296	229.612	
-175.089	276.444	230.814	
-171.607	278.756	229.845	
-177.165	275.678	227.752	
-177.213	280.362	227.49	
-172.561	281.545	226.67	
-178.719	280.831	223.927	
-176.61	284.858	223.333	
-171.74	283.873	222.802	
-178.067	284.882	219.755	
-174.604	287.33	218.234	
-172.016	283.983	218.892	
-176.827	287.125	215.18	
-173.369	284.924	213.44	
-173.405	281.458	216.424	
-175.668	284.977	210.407	
-175.11	280.62	209.509	
-171.358	281.717	207.748	
-175.484	279.988	213.122	
-171.473	277.666	212.613	
-168.451	281.281	210.994	
-171.539	276.934	216.325	
-167.471	277.315	217.181	
-166.78	282.18	217.556	
-166.244	274.153	218.694	
-162.996	275.685	221.537	
-159.392	275.807	218.425	
-165.022	278.884	222.138	
-161.459	281.064	220.617	
-161.881	278.346	217.244	
-159.702	283.907	222.428	
-162.932	286.713	220.928	
-166.164	283.867	220.646	
-162.407	288.028	224.436	
-166.683	289.25	225.199	
-168.246	285.31	224.577	
-165.166	289.611	228.615	
-169.259	288.726	230.446	
-170.193	284.096	229.039	
-167.705	288.505	233.96	
-170.933	285.89	235.459	
-170.248	281.721	232.907	
-168.444	285.678	238.302	
-170.174	281.38	238.613	
-167.845	280.349	235.297	
-168.17	280.986	241.795	
-167.706	276.437	241.017	
-165.528	277.4	237.595	
-165.218	276.338	243.902	
-162.734	273.354	241.364	
-161.671	276.499	238.748	
-160.318	273.1	244.348	
-156.883	272.527	241.47	
-157.246	276.344	239.681	
-154.914	272.954	244.631	
-151.414	274.428	241.993	
-153.65	277.815	240.911	
-149.619	276.289	244.673	
-146.561	277.932	242.092	
-149.487	281.64	241.944	
-144.89	278.276	245.458	
-143.999	282.693	244.199	
-148.024	283.685	245.005	
-141.634	283.038	247.205	
-144.678	286.31	248.223	
-148.524	283.371	248.845	
-142.992	287.309	251.596	
-147.156	286.782	253.222	
-147.878	282.112	252.381	
-145.61	287.364	256.743	
-148.546	283.889	257.719	
-145.969	281.466	255.591	
-147.821	284.153	261.531	
-147.659	279.593	261.884	
-144.762	278.554	258.716	
-146.295	280.47	265.342	
-143.352	277.253	265.073	
-140.788	277.493	260.774	
-196.565	182.101	306.305	
-194.037	184.842	307.457	
-195.459	181.025	302.698	
-192.498	178.897	305.456	
-190.896	176.401	301.913	
-189.883	181.567	305.866	
-186.528	178.376	306.206	
-186.998	177.549	302.161	
-184.552	181.493	306.757	
-181.585	179.695	303.575	
-183.689	180.039	299.113	
-179.218	182.694	303.434	
-177.095	181.078	299.672	
-180.674	182.237	296.737	
-174.812	184.144	299.714	
-175.534	184.413	295.161	
-180.107	185.994	294.333	
-173.323	187.445	294.489	
-175.271	188.558	290.571	
-179.724	189.791	292.367	
-173.147	188.739	288.224	
-169.72	191.803	288.698	
-168.31	189.261	291.745	
-170.159	191.484	285.36	
-166.338	191.886	282.68	
-161.685	193.887	283.84	
-168.959	192.446	280.177	
-168.789	188.291	278.487	
-164.418	186.7	279.647	
-171.054	187.195	281.414	
-169.37	183.057	281.598	
-164.896	183.908	283.239	
-171.648	182.982	284.625	
-169	180.077	286.767	
-165.044	182.965	287.375	
-171.259	180.569	289.878	
-167.309	181.707	292.283	
-165.766	185.276	290.388	
-168.566	182.704	295.882	
-164.459	184.691	296.921	
-163.328	188.733	294.27	
-165.936	185.79	300.322	
-163.664	189.715	299.474	
-166.24	191.575	295.585	
-164.088	190.368	303.222	
-167.542	192.791	302.932	
-169.703	190.254	300.23	
-167.501	195.42	305.767	
-168.777	192.47	309.098	
-167.643	189.067	306.672	
-168.995	194.867	311.721	
-165.324	195.77	309.663	
-164.497	191.438	310.151	
-165.636	198.79	308.588	
-164.642	200.189	304.904	
-167.701	204.008	304.593	
-162.603	198.517	302.14	
-160.725	202.083	299.849	
-160.81	205.692	303.328	
-161.563	202.375	296.348	
-157.798	199.494	296.483	
-156.621	197.096	300.28	
-156.604	197.465	293.463	
-159.096	195.202	291.632	
-163.425	196.94	289.942	
-157.056	193.269	289.235	
-156.634	189.838	292.134	
-161.287	188.237	291.759	
-154.675	187.785	289.659	
-156.796	184.078	291.243	
-160.487	185.392	289.532	
-154.389	182.389	288.818	
-157.725	179.647	287.545	
-160.176	182.992	286.392	
-155.537	178.297	284.717	
-159.289	179.397	281.888	
-160.356	183.664	282.327	
-157.873	178.884	278.232	
-161.432	181.328	276.599	
-160.575	185.824	278.225	
-159.695	180.64	273.254	
-160.634	185.046	272.363	
-158.271	186.493	275.687	
-158.932	184.159	269.316	
-156.946	188.319	269.252	
-155.53	187.666	273.212	
-154.544	186.758	266.855	
-151.36	189.764	268.389	
-150.63	187.858	272.809	
-149.231	187.776	265.943	
-145.985	188.573	269.28	
-147.156	185.602	272.964	
-143.309	186.459	267.357	
-141.712	185.193	271.373	
-144.831	181.915	273.502	
-139.341	183.566	268.877	
-139.674	180.042	271.762	
-143.701	178.778	271.833	
-136.804	177.772	270.497	
-139.702	174.171	270.186	
-143.25	175.936	268.722	
-137.279	172.394	267.845	
-140.822	171.19	265.278	
-141.965	168.431	268.227	
-142.391	174.628	265.618	
-146.189	171.986	266.431	
-145.182	169.783	270.68	
-148.125	175.179	267.223	
-150.78	172.479	269.79	
-147.423	171.984	272.462	
-152.882	175.519	270.49	
-155.186	173.111	273.686	
-155.439	168.368	271.727	
-154.226	174.547	277.023	
-150.789	172.955	277.999	
-148.171	174.679	274.421	
-151.333	175.916	280.538	
-146.985	176.825	280.509	
-147.109	178.101	276.373	
-147.946	179.21	283.055	
-144.804	181.988	281.089	
-146.874	182.033	277.327	
-146.199	184.505	283.444	
-145.013	187.77	280.361	
-147.599	186.228	277.433	
-146.939	190.006	282.553	
-147.99	192.346	278.727	
-151.139	189.401	276.309	
-150.131	194.735	280.82	
-152.812	195.237	277.066	
-154.807	190.754	276.981	
-154.859	197.623	279.067	
-158.237	196.694	276.062	
-158.607	192.055	277.631	
-160.053	199.54	277.638	
-163.136	196.2	278.423	
-160.052	192.878	280.721	
-165.106	198.713	280.354	
-167.156	196.843	283.493	
-163.612	195.224	286.527	
-170.249	198.74	283.698	
-170.12	201.697	286.859	
-173.423	203.578	284.568	
-169.715	199.775	289.999	
-171.605	196.528	290.734	
-167.435	196.266	292.198	
-174.563	194.412	291.795	
-177.063	194.642	288.507	
-180.356	194.105	291.993	
-176.407	198.467	288.21	
-180.717	199.391	288.507	
-180.5	197.835	292.509	
-179.599	203.034	288.033	
-182.757	204.264	291.187	
-181.444	201.609	294.284	
-180.711	207.421	291.031	
-182.231	207.793	295.465	
-180.16	203.967	297.692	
-179.958	210.656	296.667	
-180.134	209.241	301.058	
-177.435	205.026	301.249	
-177.676	212.104	301.928	
-176.012	209.742	305.371	
-174.32	206.971	302.536	
-174.153	213.061	305.689	
-170.51	210.592	304.841	
-171.835	209.206	300.711	
-168.915	213.97	305.399	
-166.298	213.677	301.73	
-163.824	211.112	304.056	
-169.334	212.455	299.997	
-166.481	208.974	298.781	
-165.256	207.052	303.179	
-169.373	207.362	296.893	
-168.636	203.346	297.77	
-170.472	202.767	302.302	
-168.198	201.427	294.559	
-169.978	197.37	295.769	
-165.969	195.487	297.565	
-172.354	199.027	298.095	
-170.498	196.571	301.291	
-166.84	198.316	299.771	
-172.442	194.379	303.773	
-173.481	198.017	306.184	
-173.496	200.964	303.059	
-176.681	196.08	306.404	
-179.435	199.65	306.46	
-178.123	201.159	302.698	
-181.861	196.812	306.008	
-184.723	199.65	303.816	
-182.233	200.957	299.827	
-186.968	196.738	302.811	
-188.51	198.909	299.311	
-184.598	199.192	296.356	
-189.921	195.392	298.682	
-189.265	196.636	294.255	
-185.164	195.934	294.793	
-190.948	193.411	293.237	
-188.491	193.197	289.419	
-185.145	192.72	291.788	
-189.954	189.69	288.896	
-185.762	188.428	287.418	
-184.251	188.713	291.321	
-187.151	184.915	286.654	
-183.187	183.048	287.708	
-183.235	184.352	291.788	
-185.273	179.942	287.517	
-182.253	178.011	290.416	
-183.47	180.639	293.471	
-184.478	175.305	291.646	
-181.684	173.726	294.552	
-184.084	176.603	297.508	
-183.982	170.766	294.128	
-184.239	170.732	298.837	
-186.902	174.044	298.738	
-185.978	167.303	298.675	
-189.29	169.759	300.832	
-190.217	172.825	297.147	
-191.771	166.817	301.008	
-194.596	169.79	299.142	
-192.431	170.64	294.963	
-197.163	166.937	298.915	
-197.893	168.981	294.8	
-194.148	167.494	293.718	
-200.881	166.717	293.994	
-199.446	166.19	289.652	
-195.272	164.942	290.274	
-202.124	163.509	289.645	
-199.588	160.817	287.305	
-195.118	160.434	289.447	
-83.9467	248.7	258.551	
-84.6483	251.135	261.465	
-81.9211	245.712	260.031	
-86.2306	244.856	261.304	
-85.0733	240.591	262.747	
-86.4009	246.811	264.476	
-89.3801	243.791	266.308	
-86.3122	241.077	266.657	
-89.2632	246.368	269.085	
-88.6117	242.64	271.932	
-84.0535	240.985	271.26	
-88.0981	244.61	275.149	
-86.5772	240.916	277.412	
-82.2929	240.916	275.312	
-86.1629	243.098	280.538	
-82.0883	241.001	281.139	
-78.9365	242.682	277.723	
-81.0668	242.832	284.306	
-76.6303	241.948	283.896	
-75.8366	244.733	279.901	
-75.5075	240.563	286.506	
-75.8798	242.708	290.543	
-79.9833	241.955	290.133	
-73.1203	240.708	290.826	
-72.2787	239.03	295.104	
-74.1416	240.437	299.743	
-68.951	238.527	293.527	
-69.4801	234.163	292.657	
-72.8257	232.738	295.754	
-71.446	235.208	289.497	
-74.0833	231.636	289.574	
-76.7726	232.394	293.513	
-75.6652	233.556	286.696	
-79.7133	231.848	287.566	
-80.5043	233.898	292.042	
-81.1323	234.245	284.922	
-84.1195	235.819	288.287	
-81.6401	237.545	291.427	
-86.1392	238.817	286.661	
-87.7033	240.307	290.812	
-84.2265	242.045	293.874	
-89.3882	243.245	288.98	
-87.874	245.662	292.594	
-82.9081	245.541	291.929	
-90.4327	248.194	291.526	
-87.8247	250.737	289.355	
-85.8969	247.498	287.184	
-88.9726	254.385	289.581	
-92.4856	253.99	286.612	
-92.4439	249.638	287.008	
-93.4796	257.351	286.597	
-92.8302	256.347	290.762	
-95.421	252.834	289.822	
-90.5133	258.354	291.738	
-87.3084	257.363	294.057	
-84.1872	260.937	292.664	
-86.5748	254.112	295.967	
-83.8785	255.522	299.488	
-85.1123	260.419	299.863	
-80.598	254.06	299.707	
-83.4448	251.151	302.076	
-88.0271	250.987	301.341	
-82.3699	247.689	303.207	
-80.8786	245.186	300.605	
-77.0657	246.522	297.678	
-80.586	241.999	302.38	
-84.609	240.607	300.867	
-83.1716	239.878	296.136	
-84.2662	237.253	302.529	
-86.3248	235.379	298.88	
-82.9396	236.256	296.419	
-86.0627	232.305	301.107	
-84.9404	229.981	297.459	
-81.5733	232.529	296.653	
-84.0885	226.946	299.665	
-79.8483	227.001	297.353	
-77.9106	230.945	297.734	
-77.6509	224.375	299.311	
-73.8801	226.144	297.402	
-73.5767	230.639	299.318	
-72.112	223.442	299.495	
-69.1219	226.883	300.414	
-72.1138	229.385	302.267	
-67.6859	224.136	302.38	
-66.5867	227.211	305.64	
-70.6281	228.512	305.746	
-66.2824	224.284	307.903	
-67.4433	227.035	311.445	
-72.1189	227.594	310.321	
-67.1795	223.758	313.284	
-70.7497	225.502	315.645	
-74.6088	225.266	312.647	
-71.2112	222.361	317.852	
-75.6084	223.138	317.809	
-77.5683	222.112	313.333	
-75.2492	220.095	320.058	
-78.9889	218.753	317.795	
-78.0496	218.446	313.722	
-80.076	215.676	319.916	
-80.2845	213.057	316.14	
-76.9304	214.307	313.906	
-80.0863	209.913	318.255	
-77.1704	208.143	315.306	
-80.2988	207.562	312.548	
-75.3037	211.45	314.931	
-75.6686	210.382	310.441	
-80.4685	210.615	309.536	
-74.1312	213.719	309.593	
-76.3683	213.334	305.555	
-80.0753	213.814	307.811	
-74.7688	216.543	304.565	
-77.5468	216.695	300.923	
-77.9352	211.768	299.481	
-79.9857	219.459	301.411	
-82.8114	218.114	303.709	
-80.1707	217.14	307.57	
-83.3537	221.973	303.632	
-84.6418	221.964	307.945	
-80.6965	220.91	309.274	
-85.291	225.508	307.238	
-83.6969	226.167	311.565	
-79.8304	224.57	310.639	
-83.9617	229.746	310.597	
-80.4962	230.604	313.567	
-77.8036	228.28	311.41	
-80.54	233.999	312.018	
-75.9953	234.068	312.817	
-74.1116	230.885	309.585	
-75.8167	237.518	311.191	
-71.5209	236.398	309.925	
-72.6193	233.02	306.503	
-71.2861	239.791	308.376	
-67.9544	238.041	305.76	
-71.0984	235.066	303.37	
-67.2573	241.513	304.657	
-68.1623	239.701	300.542	
-72.6828	237.67	301.595	
-67.892	243.212	299.191	
-70.4199	243.631	295.868	
-74.9888	243.344	297.791	
-68.5769	245.879	293.711	
-69.8752	249.987	294.029	
-65.9088	250.897	292.254	
-73.4197	250.007	292.947	
-74.7006	247.985	289.956	
-77.6292	247.838	293.287	
-75.3299	247.295	286.279	
-71.6179	246.246	284.943	
-73.4021	248.196	280.948	
-69.9637	249.161	286.923	
-68.1157	250.84	283.281	
-72.105	251.55	281.945	
-66.5731	253.388	285.664	
-67.3587	256.609	282.482	
-71.5601	255.906	281.98	
-66.6485	258.799	285.466	
-69.4697	261.685	283.111	
-73.7721	259.397	283.083	
-70.0905	264.38	285.841	
-74.179	265.482	284.116	
-77.2458	261.654	285.049	
-74.6025	267.915	287.17	
-79.0728	267.498	286.993	
-78.6347	263.399	288.217	
-78.6102	270.117	289.765	
-80.4299	267.009	292.396	
-77.1482	263.825	291.703	
-80.0072	269.817	294.842	
-78.1875	267.185	298.031	
-82.1448	265.839	298.774	
-76.1114	265.689	295.274	
-77.7612	261.666	296.942	
-82.6901	262.323	296.313	
-75.827	259.876	294.227	
-78.5933	256.908	293.294	
-81.8022	259.146	290.317	
-76.9776	253.529	293.775	
-79.0486	251.076	290.479	
-82.909	249.803	293.046	
-79.3145	254.197	288.351	
-83.7114	253.552	288.408	
-83.1244	253.516	292.693	
-85.9008	253.285	285.282	
-85.8499	257.796	284.936	
-82.0179	258.539	286.774	
-85.6241	256.865	281.33	
-83.0307	260.313	280.064	
-79.8615	259.384	282.737	
-82.9787	258.163	277.003	
-78.8645	259.917	275.985	
-75.998	258.332	279.64	
-78.4545	257.327	273.201	
-74.0544	257.486	273.425	
-73.0572	255.499	277.766	
-74.5469	254.539	271.064	
-70.6491	253.068	273.155	
-72.9992	252.078	276.514	
-70.5836	250.174	270.744	
-68.5228	247.445	273.855	
-71.9871	247.845	276.161	
-69.0735	244.539	271.43	
-70.0519	241.974	275.142	
-73.6843	244.065	275.616	
-70.4555	238.973	272.873	
-73.6648	237.291	275.552	
-76.3669	240.491	274.966	
-74.0426	234.926	272.604	
-78.4316	234.368	274.004	
-79.2869	238.389	273.063	
-79.7405	233.155	270.723	
-83.8782	232.921	271.967	
-84.0643	237.264	270.094	
-83.9349	230.66	268.948	
-87.6771	233.161	267.597	
-85.0897	236.28	266.332	
-88.3624	230.528	264.868	
-87.7512	234.27	262.216	
-83.0627	235.009	263.355	
-88.1993	232.326	258.868	
-84.2983	234.369	257.776	
-81.3669	232.412	261.078	
-84.3384	232.238	254.51	
-79.8482	231.941	255.598	
-81.0587	229.438	258.716	
-79.0325	230.128	252.343	
-76.2843	227.148	254.459	
-78.9453	225.677	257.656	
-76.4063	225.38	251.122	
-76.6891	221.509	253.059	
-80.3309	221.497	256.482	
-254.101	-2.8786	238.163	
